# This PCD file was generated using the MATLAB® pcwrite function
# from Computer Vision System Toolbox®.
# .PCD v.7 - Point Cloud Data file format
VERSION .7
FIELDS x y z rgb
SIZE 4 4 4 4
TYPE F F F F
COUNT 1 1 1 1
WIDTH 1001
HEIGHT 1
VIEWPOINT 0 0 0 1 0 0 0
POINTS 1001
DATA ascii
146.000000 17.000000 126.000000 5.899800044e-39
146.000000 17.000000 127.000000 5.715410185e-39
147.000000 16.000000 126.000000 5.807965949e-39
147.000000 16.000000 127.000000 5.807965949e-39
147.000000 17.000000 126.000000 5.623574689e-39
146.000000 19.000000 125.000000 6.452612288e-39
147.000000 18.000000 125.000000 5.991995674e-39
147.000000 19.000000 124.000000 6.268221028e-39
147.000000 19.000000 125.000000 6.360416658e-39
146.000000 18.000000 126.000000 6.176026800e-39
146.000000 18.000000 127.000000 5.991995674e-39
146.000000 19.000000 126.000000 6.452612288e-39
147.000000 18.000000 126.000000 5.991995674e-39
147.000000 20.000000 123.000000 6.637003548e-39
147.000000 21.000000 122.000000 7.374208453e-39
147.000000 21.000000 123.000000 7.190177327e-39
147.000000 23.000000 121.000000 7.466404083e-39
146.000000 22.000000 123.000000 7.282012823e-39
146.000000 23.000000 123.000000 7.466404083e-39
147.000000 22.000000 122.000000 7.374208453e-39
147.000000 22.000000 123.000000 7.374208453e-39
147.000000 23.000000 122.000000 7.466404083e-39
144.000000 21.000000 125.000000 7.374568587e-39
145.000000 20.000000 125.000000 7.005787468e-39
145.000000 21.000000 124.000000 7.374209854e-39
145.000000 21.000000 125.000000 7.374568587e-39
144.000000 20.000000 127.000000 7.097981697e-39
144.000000 21.000000 126.000000 7.374568587e-39
144.000000 21.000000 127.000000 7.374209854e-39
145.000000 20.000000 126.000000 7.005786067e-39
145.000000 21.000000 126.000000 7.282014224e-39
144.000000 22.000000 125.000000 7.558599713e-39
144.000000 23.000000 125.000000 7.927382232e-39
145.000000 22.000000 124.000000 7.374209854e-39
145.000000 22.000000 125.000000 7.374568587e-39
145.000000 23.000000 124.000000 7.650795343e-39
145.000000 23.000000 125.000000 7.742990972e-39
144.000000 22.000000 126.000000 7.558601114e-39
146.000000 20.000000 125.000000 6.913590437e-39
146.000000 21.000000 124.000000 7.282372957e-39
147.000000 20.000000 124.000000 6.637003548e-39
147.000000 21.000000 124.000000 7.097983098e-39
146.000000 22.000000 124.000000 7.282012823e-39
148.000000 19.000000 123.000000 6.268221028e-39
149.000000 18.000000 123.000000 5.991997075e-39
149.000000 19.000000 123.000000 6.176028201e-39
150.000000 17.000000 123.000000 5.438821895e-39
151.000000 16.000000 123.000000 5.438823296e-39
151.000000 17.000000 123.000000 5.438821895e-39
151.000000 19.000000 121.000000 6.084191304e-39
150.000000 18.000000 123.000000 5.807605815e-39
150.000000 19.000000 122.000000 5.991995674e-39
150.000000 19.000000 123.000000 6.084191304e-39
151.000000 18.000000 122.000000 5.807604414e-39
151.000000 18.000000 123.000000 5.807604414e-39
151.000000 19.000000 122.000000 5.991997075e-39
148.000000 16.000000 125.000000 5.715770319e-39
148.000000 17.000000 125.000000 5.531380461e-39
149.000000 16.000000 125.000000 5.715768918e-39
149.000000 17.000000 124.000000 5.531379059e-39
149.000000 17.000000 125.000000 5.531379059e-39
148.000000 16.000000 126.000000 5.715770319e-39
148.000000 18.000000 124.000000 5.899800044e-39
148.000000 18.000000 125.000000 5.807605815e-39
148.000000 19.000000 124.000000 6.083831170e-39
149.000000 18.000000 124.000000 5.899801445e-39
150.000000 16.000000 124.000000 5.531377658e-39
150.000000 17.000000 124.000000 5.531377658e-39
151.000000 16.000000 124.000000 5.531377658e-39
149.000000 21.000000 121.000000 7.005427335e-39
148.000000 20.000000 123.000000 6.544449185e-39
148.000000 21.000000 122.000000 7.190177327e-39
148.000000 21.000000 123.000000 6.913230304e-39
149.000000 20.000000 122.000000 6.544807918e-39
149.000000 20.000000 123.000000 6.360418059e-39
149.000000 21.000000 122.000000 6.821396209e-39
148.000000 22.000000 121.000000 7.189818595e-39
148.000000 23.000000 121.000000 7.282012823e-39
149.000000 22.000000 120.000000 6.913590437e-39
149.000000 22.000000 121.000000 7.005786067e-39
149.000000 23.000000 120.000000 7.189818595e-39
148.000000 22.000000 122.000000 7.374208453e-39
150.000000 21.000000 120.000000 6.729200579e-39
150.000000 21.000000 121.000000 6.729560713e-39
151.000000 20.000000 121.000000 6.176386933e-39
151.000000 21.000000 120.000000 6.176385532e-39
151.000000 21.000000 121.000000 6.452613689e-39
150.000000 20.000000 122.000000 6.360779594e-39
151.000000 20.000000 122.000000 6.176386933e-39
150.000000 22.000000 120.000000 6.729559311e-39
150.000000 23.000000 120.000000 6.913590437e-39
151.000000 22.000000 120.000000 6.360778193e-39
149.000000 24.000000 119.000000 7.742990972e-39
149.000000 25.000000 119.000000 8.295804618e-39
149.000000 26.000000 119.000000 8.848978397e-39
149.000000 27.000000 119.000000 9.309596413e-39
151.000000 24.000000 117.000000 7.558599713e-39
151.000000 25.000000 117.000000 8.111413358e-39
150.000000 24.000000 118.000000 7.835186602e-39
150.000000 24.000000 119.000000 7.466764217e-39
150.000000 25.000000 118.000000 8.203969122e-39
150.000000 25.000000 119.000000 8.019577862e-39
151.000000 24.000000 118.000000 7.466405484e-39
151.000000 25.000000 118.000000 8.019577862e-39
151.000000 26.000000 117.000000 8.572031374e-39
151.000000 27.000000 117.000000 9.125203752e-39
150.000000 26.000000 118.000000 8.757141500e-39
150.000000 27.000000 118.000000 9.309596413e-39
151.000000 26.000000 118.000000 8.848978397e-39
149.000000 28.000000 119.000000 9.770573161e-39
151.000000 28.000000 117.000000 9.493626137e-39
150.000000 28.000000 118.000000 9.678018798e-39
150.000000 28.000000 119.000000 9.862768791e-39
150.000000 29.000000 119.000000 1.023082964e-38
151.000000 28.000000 118.000000 9.585821767e-39
151.000000 29.000000 118.000000 9.862407256e-39
151.000000 29.000000 119.000000 1.023082964e-38
151.000000 30.000000 119.000000 1.059961076e-38
145.000000 24.000000 123.000000 8.388000248e-39
145.000000 25.000000 123.000000 8.848978397e-39
145.000000 26.000000 123.000000 9.125563885e-39
147.000000 24.000000 121.000000 7.927380831e-39
147.000000 25.000000 121.000000 8.388001649e-39
146.000000 24.000000 122.000000 8.019577862e-39
146.000000 24.000000 123.000000 8.111773492e-39
146.000000 25.000000 122.000000 8.664587137e-39
146.000000 25.000000 123.000000 8.756782767e-39
147.000000 24.000000 122.000000 8.019217728e-39
147.000000 25.000000 122.000000 8.480556011e-39
147.000000 26.000000 121.000000 9.033369657e-39
147.000000 27.000000 121.000000 9.678739066e-39
146.000000 26.000000 122.000000 9.033368255e-39
146.000000 26.000000 123.000000 9.217759515e-39
146.000000 27.000000 122.000000 9.586183302e-39
146.000000 27.000000 123.000000 9.862767389e-39
147.000000 26.000000 122.000000 9.033368255e-39
147.000000 27.000000 122.000000 9.862768791e-39
144.000000 24.000000 125.000000 8.572391507e-39
144.000000 25.000000 125.000000 9.033008122e-39
145.000000 24.000000 124.000000 8.296164752e-39
145.000000 25.000000 124.000000 8.940813893e-39
144.000000 26.000000 125.000000 9.493626137e-39
144.000000 27.000000 125.000000 9.862047122e-39
145.000000 26.000000 124.000000 9.401430508e-39
145.000000 26.000000 125.000000 9.493626137e-39
145.000000 27.000000 124.000000 9.862047122e-39
145.000000 27.000000 125.000000 9.862047122e-39
144.000000 26.000000 126.000000 9.585820366e-39
144.000000 27.000000 126.000000 9.862047122e-39
146.000000 27.000000 124.000000 1.004643838e-38
146.000000 28.000000 123.000000 1.041522230e-38
147.000000 28.000000 122.000000 1.041558384e-38
147.000000 28.000000 123.000000 1.078436355e-38
147.000000 29.000000 123.000000 1.106059031e-38
145.000000 28.000000 124.000000 1.032266514e-38
145.000000 28.000000 125.000000 1.050705500e-38
145.000000 29.000000 125.000000 1.133681566e-38
144.000000 28.000000 126.000000 1.041485937e-38
144.000000 28.000000 127.000000 1.032266233e-38
144.000000 29.000000 127.000000 1.096803315e-38
145.000000 28.000000 126.000000 1.087619765e-38
145.000000 29.000000 126.000000 1.133681566e-38
145.000000 29.000000 127.000000 1.124425990e-38
145.000000 30.000000 127.000000 1.161304242e-38
146.000000 28.000000 124.000000 1.069144766e-38
146.000000 29.000000 124.000000 1.124498017e-38
146.000000 29.000000 125.000000 1.142901129e-38
147.000000 29.000000 124.000000 1.133717580e-38
146.000000 29.000000 126.000000 1.161340255e-38
147.000000 30.000000 124.000000 1.170559959e-38
147.000000 30.000000 125.000000 1.170559818e-38
147.000000 31.000000 125.000000 1.198218367e-38
146.000000 30.000000 126.000000 1.170523805e-38
146.000000 30.000000 127.000000 1.179743228e-38
146.000000 31.000000 127.000000 1.179743368e-38
147.000000 30.000000 126.000000 1.170559678e-38
147.000000 31.000000 126.000000 1.198182354e-38
147.000000 31.000000 127.000000 1.188962791e-38
148.000000 24.000000 120.000000 7.650795343e-39
148.000000 24.000000 121.000000 7.650795343e-39
148.000000 25.000000 120.000000 8.296164752e-39
148.000000 25.000000 121.000000 8.572391507e-39
149.000000 24.000000 120.000000 7.558959846e-39
149.000000 25.000000 120.000000 8.295806019e-39
148.000000 26.000000 120.000000 8.941174027e-39
148.000000 26.000000 121.000000 9.125565287e-39
148.000000 27.000000 120.000000 9.586183302e-39
148.000000 27.000000 121.000000 9.678378932e-39
149.000000 26.000000 120.000000 8.848978397e-39
149.000000 27.000000 120.000000 9.493987672e-39
148.000000 28.000000 121.000000 1.032374834e-38
148.000000 29.000000 121.000000 1.069180919e-38
149.000000 28.000000 120.000000 1.013935568e-38
149.000000 28.000000 121.000000 1.050777807e-38
149.000000 29.000000 120.000000 1.059961356e-38
149.000000 29.000000 121.000000 1.078400342e-38
148.000000 28.000000 122.000000 1.059997370e-38
148.000000 29.000000 122.000000 1.069216792e-38
148.000000 29.000000 123.000000 1.106059031e-38
149.000000 30.000000 121.000000 1.106022878e-38
148.000000 30.000000 123.000000 1.133681707e-38
149.000000 30.000000 122.000000 1.106058891e-38
149.000000 30.000000 123.000000 1.142901129e-38
149.000000 31.000000 123.000000 1.179779381e-38
150.000000 29.000000 120.000000 1.059961216e-38
150.000000 30.000000 120.000000 1.106059031e-38
150.000000 30.000000 121.000000 1.133681707e-38
150.000000 31.000000 121.000000 1.161340396e-38
151.000000 30.000000 120.000000 1.096803455e-38
151.000000 31.000000 120.000000 1.124462003e-38
151.000000 31.000000 121.000000 1.161340396e-38
150.000000 31.000000 122.000000 1.179743508e-38
150.000000 31.000000 123.000000 1.216621620e-38
151.000000 31.000000 122.000000 1.198218507e-38
148.000000 30.000000 124.000000 1.170559959e-38
148.000000 31.000000 124.000000 1.198182494e-38
148.000000 31.000000 125.000000 1.216621620e-38
149.000000 31.000000 124.000000 1.216621620e-38
148.000000 31.000000 126.000000 1.216621620e-38
154.000000 19.000000 119.000000 5.807244280e-39
155.000000 18.000000 119.000000 5.531017524e-39
155.000000 19.000000 119.000000 5.715048650e-39
155.000000 23.000000 115.000000 6.913590437e-39
152.000000 21.000000 119.000000 5.807242879e-39
153.000000 20.000000 119.000000 5.715048650e-39
153.000000 21.000000 118.000000 5.807242879e-39
153.000000 21.000000 119.000000 5.715047249e-39
152.000000 23.000000 117.000000 6.821394807e-39
153.000000 22.000000 117.000000 6.544806517e-39
153.000000 23.000000 117.000000 6.821034674e-39
152.000000 22.000000 118.000000 6.176025398e-39
152.000000 22.000000 119.000000 6.083831170e-39
152.000000 23.000000 118.000000 6.637003548e-39
153.000000 22.000000 118.000000 6.267860895e-39
154.000000 21.000000 117.000000 5.899438509e-39
155.000000 21.000000 117.000000 5.991635540e-39
154.000000 20.000000 119.000000 5.531016123e-39
154.000000 21.000000 118.000000 5.623210352e-39
154.000000 21.000000 119.000000 5.530655989e-39
155.000000 20.000000 118.000000 5.622851619e-39
155.000000 20.000000 119.000000 5.622851619e-39
155.000000 21.000000 118.000000 5.622851619e-39
154.000000 22.000000 116.000000 6.637003548e-39
154.000000 22.000000 117.000000 6.360416658e-39
154.000000 23.000000 116.000000 7.005425933e-39
155.000000 22.000000 116.000000 6.637003548e-39
155.000000 22.000000 117.000000 6.452612288e-39
159.000000 19.000000 115.000000 5.899439910e-39
156.000000 16.000000 119.000000 5.623574689e-39
156.000000 17.000000 119.000000 5.346627666e-39
157.000000 16.000000 119.000000 5.531739193e-39
157.000000 17.000000 118.000000 5.346986398e-39
157.000000 17.000000 119.000000 5.254792170e-39
157.000000 19.000000 117.000000 5.715048650e-39
156.000000 18.000000 119.000000 5.623213154e-39
156.000000 19.000000 118.000000 5.807242879e-39
156.000000 19.000000 119.000000 5.715407383e-39
157.000000 18.000000 118.000000 5.715048650e-39
157.000000 19.000000 118.000000 5.715407383e-39
158.000000 17.000000 117.000000 5.438821895e-39
159.000000 16.000000 117.000000 5.531018926e-39
159.000000 17.000000 117.000000 5.346624863e-39
158.000000 16.000000 118.000000 5.439183430e-39
158.000000 16.000000 119.000000 5.623574689e-39
158.000000 17.000000 118.000000 5.346627666e-39
159.000000 16.000000 118.000000 5.531018926e-39
158.000000 18.000000 117.000000 5.715407383e-39
158.000000 19.000000 116.000000 5.807242879e-39
158.000000 19.000000 117.000000 5.715408784e-39
159.000000 18.000000 116.000000 5.715048650e-39
159.000000 18.000000 117.000000 5.715048650e-39
159.000000 19.000000 116.000000 5.899438509e-39
157.000000 21.000000 115.000000 6.360416658e-39
157.000000 23.000000 113.000000 7.097622965e-39
156.000000 22.000000 115.000000 6.637003548e-39
156.000000 23.000000 114.000000 7.005786067e-39
156.000000 23.000000 115.000000 6.821394807e-39
157.000000 22.000000 114.000000 6.821394807e-39
157.000000 22.000000 115.000000 6.637003548e-39
157.000000 23.000000 114.000000 7.005425933e-39
159.000000 21.000000 113.000000 6.452612288e-39
158.000000 20.000000 115.000000 5.991634139e-39
158.000000 21.000000 114.000000 6.452612288e-39
158.000000 21.000000 115.000000 6.268221028e-39
159.000000 20.000000 114.000000 5.991635540e-39
159.000000 20.000000 115.000000 5.899439910e-39
159.000000 21.000000 114.000000 6.176025398e-39
158.000000 22.000000 113.000000 6.821034674e-39
158.000000 23.000000 112.000000 7.097621563e-39
158.000000 23.000000 113.000000 7.097622965e-39
159.000000 22.000000 112.000000 6.821036075e-39
159.000000 22.000000 113.000000 6.729199178e-39
159.000000 23.000000 112.000000 6.729200579e-39
158.000000 22.000000 114.000000 6.821034674e-39
156.000000 20.000000 117.000000 5.807241478e-39
156.000000 21.000000 116.000000 6.176025398e-39
156.000000 21.000000 117.000000 5.899439910e-39
157.000000 20.000000 116.000000 5.807242879e-39
157.000000 20.000000 117.000000 5.715047249e-39
157.000000 21.000000 116.000000 6.176025398e-39
156.000000 20.000000 118.000000 5.807242879e-39
156.000000 22.000000 116.000000 6.452612288e-39
158.000000 20.000000 116.000000 5.807242879e-39
158.000000 20.000000 117.000000 5.807242879e-39
153.000000 16.000000 121.000000 5.439543563e-39
153.000000 17.000000 121.000000 5.346987800e-39
152.000000 16.000000 122.000000 5.439182028e-39
152.000000 16.000000 123.000000 5.531379059e-39
152.000000 17.000000 122.000000 5.438823296e-39
152.000000 17.000000 123.000000 5.254792170e-39
153.000000 16.000000 122.000000 5.531379059e-39
153.000000 17.000000 122.000000 5.346987800e-39
152.000000 18.000000 121.000000 5.715410185e-39
152.000000 19.000000 121.000000 5.899800044e-39
153.000000 18.000000 121.000000 5.623573288e-39
153.000000 19.000000 120.000000 5.715410185e-39
153.000000 19.000000 121.000000 5.715408784e-39
152.000000 18.000000 122.000000 5.715410185e-39
154.000000 16.000000 121.000000 5.439544965e-39
154.000000 17.000000 120.000000 5.346627666e-39
154.000000 17.000000 121.000000 5.254792170e-39
155.000000 16.000000 120.000000 5.439543563e-39
155.000000 17.000000 120.000000 5.254432036e-39
154.000000 18.000000 120.000000 5.623213154e-39
154.000000 18.000000 121.000000 5.531377658e-39
154.000000 19.000000 120.000000 5.715408784e-39
155.000000 18.000000 120.000000 5.531017524e-39
152.000000 20.000000 120.000000 5.899800044e-39
152.000000 20.000000 121.000000 6.084191304e-39
152.000000 21.000000 120.000000 5.899798643e-39
153.000000 20.000000 120.000000 5.715408784e-39
156.000000 16.000000 120.000000 5.439543563e-39
156.000000 17.000000 120.000000 5.254790769e-39
153.000000 25.000000 115.000000 8.203607587e-39
153.000000 26.000000 115.000000 8.572390106e-39
153.000000 27.000000 115.000000 9.125203752e-39
154.000000 24.000000 115.000000 7.558239579e-39
154.000000 25.000000 114.000000 8.019217728e-39
154.000000 25.000000 115.000000 7.927380831e-39
155.000000 24.000000 114.000000 7.374208453e-39
155.000000 24.000000 115.000000 7.374208453e-39
155.000000 25.000000 114.000000 7.927022098e-39
155.000000 26.000000 113.000000 8.480195878e-39
155.000000 27.000000 113.000000 8.848976996e-39
154.000000 26.000000 114.000000 8.387998846e-39
154.000000 26.000000 115.000000 8.480194476e-39
154.000000 27.000000 114.000000 8.940813893e-39
154.000000 27.000000 115.000000 9.033008122e-39
155.000000 26.000000 114.000000 8.480194476e-39
155.000000 27.000000 114.000000 8.940812492e-39
152.000000 24.000000 116.000000 7.742990972e-39
152.000000 24.000000 117.000000 7.374208453e-39
152.000000 25.000000 116.000000 8.111411957e-39
152.000000 25.000000 117.000000 7.927020697e-39
153.000000 24.000000 116.000000 7.466404083e-39
153.000000 24.000000 117.000000 7.097621563e-39
153.000000 25.000000 116.000000 8.019217728e-39
152.000000 26.000000 116.000000 8.572029972e-39
152.000000 27.000000 116.000000 8.940812492e-39
152.000000 27.000000 117.000000 9.125203752e-39
153.000000 26.000000 116.000000 8.572031374e-39
153.000000 27.000000 116.000000 9.033008122e-39
154.000000 24.000000 116.000000 7.374208453e-39
155.000000 28.000000 113.000000 9.217399382e-39
155.000000 29.000000 113.000000 9.309593610e-39
154.000000 28.000000 114.000000 9.401790641e-39
154.000000 28.000000 115.000000 9.585821767e-39
154.000000 29.000000 115.000000 9.954604287e-39
155.000000 28.000000 114.000000 9.493986271e-39
155.000000 29.000000 114.000000 9.586181901e-39
155.000000 29.000000 115.000000 9.954604287e-39
154.000000 30.000000 115.000000 9.954604287e-39
155.000000 30.000000 114.000000 9.217036445e-39
155.000000 30.000000 115.000000 9.585818965e-39
155.000000 31.000000 114.000000 9.216677713e-39
155.000000 31.000000 115.000000 9.493264602e-39
152.000000 28.000000 116.000000 9.309233476e-39
152.000000 28.000000 117.000000 9.401429106e-39
152.000000 29.000000 117.000000 9.862047122e-39
153.000000 28.000000 116.000000 9.401789240e-39
153.000000 29.000000 116.000000 9.954602885e-39
153.000000 29.000000 117.000000 9.954602885e-39
152.000000 29.000000 118.000000 1.004643838e-38
152.000000 30.000000 117.000000 1.041522090e-38
153.000000 30.000000 117.000000 1.059961216e-38
153.000000 31.000000 117.000000 1.078400342e-38
152.000000 30.000000 118.000000 1.050741513e-38
152.000000 30.000000 119.000000 1.059961076e-38
152.000000 31.000000 118.000000 1.078364189e-38
152.000000 31.000000 119.000000 1.096803315e-38
153.000000 31.000000 118.000000 1.096803455e-38
154.000000 29.000000 116.000000 1.004679992e-38
154.000000 30.000000 116.000000 1.023083104e-38
154.000000 30.000000 117.000000 1.050777666e-38
154.000000 31.000000 116.000000 9.862047122e-39
154.000000 31.000000 117.000000 1.032302527e-38
155.000000 31.000000 116.000000 9.678014595e-39
156.000000 24.000000 113.000000 7.558601114e-39
156.000000 25.000000 113.000000 8.019577862e-39
157.000000 24.000000 113.000000 7.466764217e-39
157.000000 25.000000 112.000000 8.019219130e-39
157.000000 25.000000 113.000000 7.927382232e-39
156.000000 24.000000 114.000000 7.374208453e-39
156.000000 26.000000 113.000000 8.388000248e-39
156.000000 27.000000 112.000000 8.756422633e-39
156.000000 27.000000 113.000000 8.756781366e-39
157.000000 26.000000 112.000000 8.388000248e-39
157.000000 27.000000 112.000000 8.480195878e-39
158.000000 24.000000 112.000000 7.466404083e-39
158.000000 25.000000 112.000000 7.835186602e-39
156.000000 28.000000 113.000000 8.940812492e-39
156.000000 29.000000 113.000000 8.940811091e-39
157.000000 28.000000 112.000000 8.572029972e-39
157.000000 29.000000 112.000000 8.756419831e-39
156.000000 30.000000 113.000000 9.032646587e-39
156.000000 31.000000 113.000000 9.401790641e-39
157.000000 30.000000 112.000000 9.217399382e-39
157.000000 30.000000 113.000000 9.125203752e-39
157.000000 31.000000 112.000000 9.401790641e-39
157.000000 31.000000 113.000000 9.401790641e-39
156.000000 30.000000 114.000000 8.940450957e-39
156.000000 31.000000 114.000000 9.493626137e-39
158.000000 31.000000 112.000000 9.493986271e-39
152.000000 31.000000 120.000000 1.133645693e-38
158.000000 32.000000 111.000000 9.678377531e-39
159.000000 32.000000 110.000000 9.769851492e-39
159.000000 32.000000 111.000000 9.862767389e-39
159.000000 33.000000 111.000000 1.013863401e-38
147.000000 32.000000 127.000000 1.207365903e-38
151.000000 32.000000 121.000000 1.179779522e-38
150.000000 32.000000 123.000000 1.216621620e-38
151.000000 32.000000 122.000000 1.198218507e-38
151.000000 32.000000 123.000000 1.216621480e-38
151.000000 33.000000 123.000000 1.161340115e-38
149.000000 32.000000 124.000000 1.235060606e-38
149.000000 32.000000 125.000000 1.235060746e-38
148.000000 32.000000 126.000000 1.225841183e-38
148.000000 32.000000 127.000000 1.216621620e-38
149.000000 32.000000 126.000000 1.235060746e-38
149.000000 32.000000 127.000000 1.216621620e-38
149.000000 33.000000 126.000000 1.225841043e-38
149.000000 33.000000 127.000000 1.188962931e-38
150.000000 32.000000 124.000000 1.225841043e-38
150.000000 32.000000 125.000000 1.235060606e-38
150.000000 33.000000 125.000000 1.207401917e-38
151.000000 32.000000 124.000000 1.216621480e-38
151.000000 33.000000 124.000000 1.161340115e-38
151.000000 33.000000 125.000000 1.152084679e-38
150.000000 33.000000 126.000000 1.179743368e-38
150.000000 33.000000 127.000000 1.142864976e-38
151.000000 33.000000 126.000000 1.133645413e-38
151.000000 34.000000 125.000000 1.124462003e-38
150.000000 34.000000 127.000000 1.115206147e-38
151.000000 34.000000 126.000000 1.133681426e-38
151.000000 34.000000 127.000000 1.133609259e-38
151.000000 35.000000 127.000000 1.152084539e-38
155.000000 32.000000 115.000000 9.770211626e-39
153.000000 32.000000 118.000000 1.059961076e-38
153.000000 32.000000 119.000000 1.078364189e-38
154.000000 32.000000 117.000000 1.004607685e-38
155.000000 32.000000 116.000000 1.004643698e-38
155.000000 32.000000 117.000000 1.013863261e-38
155.000000 33.000000 117.000000 1.050705500e-38
154.000000 32.000000 118.000000 1.032302387e-38
154.000000 32.000000 119.000000 1.050705500e-38
154.000000 33.000000 118.000000 1.050705500e-38
154.000000 33.000000 119.000000 1.059924922e-38
155.000000 33.000000 118.000000 1.059925063e-38
155.000000 34.000000 117.000000 1.096803455e-38
154.000000 34.000000 119.000000 1.078364048e-38
155.000000 34.000000 118.000000 1.096803315e-38
155.000000 34.000000 119.000000 1.096803174e-38
155.000000 35.000000 118.000000 1.106022737e-38
155.000000 35.000000 119.000000 1.105986724e-38
157.000000 32.000000 113.000000 9.954964420e-39
157.000000 33.000000 113.000000 1.050741793e-38
156.000000 32.000000 114.000000 1.004679992e-38
156.000000 32.000000 115.000000 9.954242752e-39
156.000000 33.000000 115.000000 1.059961216e-38
157.000000 32.000000 114.000000 1.041558244e-38
157.000000 33.000000 114.000000 1.059997229e-38
157.000000 33.000000 115.000000 1.059961216e-38
157.000000 34.000000 114.000000 1.059961216e-38
157.000000 34.000000 115.000000 1.069144766e-38
157.000000 35.000000 115.000000 1.096803174e-38
158.000000 32.000000 112.000000 9.954963019e-39
158.000000 32.000000 113.000000 1.032374694e-38
158.000000 33.000000 112.000000 1.032302527e-38
158.000000 33.000000 113.000000 1.041522090e-38
159.000000 33.000000 112.000000 1.041522090e-38
158.000000 34.000000 113.000000 1.059961076e-38
159.000000 34.000000 112.000000 1.059925203e-38
159.000000 34.000000 113.000000 1.069144626e-38
159.000000 35.000000 113.000000 1.087583752e-38
158.000000 34.000000 114.000000 1.069180639e-38
158.000000 35.000000 114.000000 1.087583752e-38
158.000000 35.000000 115.000000 1.115206427e-38
159.000000 35.000000 114.000000 1.096803315e-38
156.000000 32.000000 116.000000 1.032302527e-38
156.000000 33.000000 116.000000 1.059961076e-38
156.000000 33.000000 117.000000 1.059925063e-38
156.000000 34.000000 116.000000 1.059924922e-38
156.000000 34.000000 117.000000 1.078364048e-38
156.000000 35.000000 117.000000 1.115206427e-38
157.000000 34.000000 116.000000 1.069144485e-38
157.000000 35.000000 116.000000 1.105986864e-38
157.000000 35.000000 117.000000 1.115242300e-38
156.000000 35.000000 118.000000 1.124461863e-38
156.000000 35.000000 119.000000 1.115242300e-38
158.000000 35.000000 116.000000 1.124425850e-38
159.000000 36.000000 114.000000 1.124425990e-38
159.000000 36.000000 115.000000 1.133645553e-38
159.000000 37.000000 115.000000 1.133681426e-38
157.000000 36.000000 117.000000 1.124461863e-38
156.000000 36.000000 119.000000 1.133681566e-38
157.000000 36.000000 118.000000 1.133681426e-38
157.000000 36.000000 119.000000 1.142865116e-38
157.000000 37.000000 118.000000 1.152084679e-38
157.000000 37.000000 119.000000 1.152084679e-38
158.000000 36.000000 116.000000 1.133645553e-38
158.000000 36.000000 117.000000 1.124461863e-38
158.000000 37.000000 117.000000 1.142864976e-38
159.000000 37.000000 116.000000 1.161304102e-38
159.000000 37.000000 117.000000 1.161340115e-38
158.000000 37.000000 118.000000 1.152084679e-38
158.000000 37.000000 119.000000 1.170523665e-38
159.000000 38.000000 117.000000 1.170523805e-38
158.000000 38.000000 118.000000 1.161340115e-38
158.000000 38.000000 119.000000 1.179743368e-38
159.000000 38.000000 118.000000 1.170523665e-38
159.000000 38.000000 119.000000 1.179743228e-38
159.000000 39.000000 119.000000 1.179707215e-38
152.000000 32.000000 120.000000 1.115242440e-38
152.000000 32.000000 121.000000 1.124462003e-38
152.000000 33.000000 121.000000 1.069144626e-38
153.000000 32.000000 120.000000 1.069144626e-38
153.000000 33.000000 120.000000 1.050705500e-38
153.000000 33.000000 121.000000 1.059925063e-38
152.000000 33.000000 122.000000 1.106022878e-38
152.000000 33.000000 123.000000 1.106023018e-38
153.000000 33.000000 122.000000 1.078364048e-38
153.000000 34.000000 121.000000 1.078328175e-38
152.000000 34.000000 123.000000 1.106058891e-38
153.000000 34.000000 122.000000 1.106022878e-38
153.000000 34.000000 123.000000 1.115242581e-38
153.000000 35.000000 123.000000 1.115242440e-38
154.000000 33.000000 120.000000 1.050669486e-38
154.000000 34.000000 120.000000 1.078328035e-38
154.000000 34.000000 121.000000 1.096767161e-38
154.000000 35.000000 121.000000 1.124425850e-38
155.000000 34.000000 120.000000 1.096803174e-38
155.000000 35.000000 120.000000 1.105986724e-38
155.000000 35.000000 121.000000 1.124425850e-38
154.000000 34.000000 122.000000 1.106022737e-38
154.000000 35.000000 122.000000 1.124461863e-38
154.000000 35.000000 123.000000 1.124462003e-38
152.000000 33.000000 124.000000 1.115242581e-38
152.000000 34.000000 124.000000 1.133681847e-38
152.000000 34.000000 125.000000 1.152120833e-38
152.000000 35.000000 125.000000 1.161340396e-38
153.000000 34.000000 124.000000 1.133681707e-38
153.000000 35.000000 124.000000 1.142937283e-38
153.000000 35.000000 125.000000 1.152120833e-38
152.000000 35.000000 126.000000 1.161340396e-38
152.000000 35.000000 127.000000 1.161304382e-38
154.000000 35.000000 124.000000 1.142901270e-38
155.000000 36.000000 120.000000 1.133645553e-38
155.000000 36.000000 121.000000 1.142865116e-38
154.000000 36.000000 122.000000 1.152084679e-38
154.000000 36.000000 123.000000 1.161304242e-38
155.000000 36.000000 122.000000 1.161304102e-38
155.000000 36.000000 123.000000 1.170523665e-38
155.000000 37.000000 123.000000 1.179743228e-38
153.000000 36.000000 124.000000 1.161340396e-38
153.000000 36.000000 125.000000 1.161376409e-38
152.000000 36.000000 127.000000 1.170559678e-38
153.000000 36.000000 126.000000 1.170559959e-38
153.000000 36.000000 127.000000 1.179779381e-38
153.000000 37.000000 127.000000 1.188998944e-38
154.000000 36.000000 124.000000 1.170559818e-38
154.000000 36.000000 125.000000 1.170559959e-38
154.000000 37.000000 124.000000 1.170523805e-38
154.000000 37.000000 125.000000 1.179743368e-38
155.000000 37.000000 124.000000 1.179743228e-38
155.000000 37.000000 125.000000 1.179707355e-38
154.000000 36.000000 126.000000 1.179779522e-38
154.000000 37.000000 126.000000 1.179779381e-38
154.000000 37.000000 127.000000 1.188998944e-38
155.000000 38.000000 125.000000 1.179743088e-38
154.000000 38.000000 127.000000 1.216621620e-38
155.000000 38.000000 126.000000 1.198182354e-38
155.000000 38.000000 127.000000 1.225841043e-38
155.000000 39.000000 127.000000 1.235024733e-38
156.000000 36.000000 120.000000 1.142865116e-38
156.000000 36.000000 121.000000 1.142865116e-38
156.000000 37.000000 121.000000 1.161304102e-38
157.000000 37.000000 120.000000 1.152120552e-38
157.000000 37.000000 121.000000 1.170523805e-38
156.000000 37.000000 122.000000 1.188962791e-38
156.000000 37.000000 123.000000 1.198182354e-38
157.000000 38.000000 121.000000 1.198182494e-38
156.000000 38.000000 123.000000 1.216621480e-38
157.000000 38.000000 122.000000 1.235060606e-38
157.000000 38.000000 123.000000 1.244244296e-38
157.000000 39.000000 123.000000 1.262683281e-38
158.000000 38.000000 120.000000 1.188962931e-38
158.000000 38.000000 121.000000 1.216621480e-38
158.000000 39.000000 121.000000 1.216621480e-38
159.000000 39.000000 120.000000 1.188962791e-38
159.000000 39.000000 121.000000 1.216621480e-38
158.000000 39.000000 122.000000 1.235060746e-38
158.000000 39.000000 123.000000 1.244280169e-38
159.000000 39.000000 122.000000 1.225841183e-38
156.000000 38.000000 124.000000 1.207401777e-38
156.000000 38.000000 125.000000 1.207365903e-38
157.000000 38.000000 124.000000 1.244244155e-38
157.000000 39.000000 124.000000 1.262683281e-38
157.000000 39.000000 125.000000 1.244244155e-38
156.000000 38.000000 126.000000 1.216621340e-38
156.000000 39.000000 126.000000 1.225805029e-38
156.000000 39.000000 127.000000 1.225841043e-38
157.000000 39.000000 126.000000 1.235024733e-38
157.000000 39.000000 127.000000 1.225841323e-38
158.000000 39.000000 124.000000 1.253463718e-38
158.000000 39.000000 125.000000 1.244280169e-38
159.000000 40.000000 121.000000 1.225877196e-38
159.000000 40.000000 122.000000 1.225841183e-38
159.000000 40.000000 123.000000 1.207438070e-38
157.000000 40.000000 126.000000 1.235060746e-38
157.000000 40.000000 127.000000 1.198254661e-38
158.000000 40.000000 124.000000 1.235060606e-38
158.000000 40.000000 125.000000 1.225841183e-38
159.000000 40.000000 124.000000 1.179779522e-38
159.000000 40.000000 125.000000 1.152120833e-38
159.000000 41.000000 124.000000 1.096839468e-38
159.000000 41.000000 125.000000 9.585457430e-39
158.000000 40.000000 126.000000 1.188998944e-38
158.000000 40.000000 127.000000 1.152156846e-38
158.000000 41.000000 127.000000 1.023082964e-38
159.000000 41.000000 126.000000 9.585458831e-39
159.000000 41.000000 127.000000 9.308510406e-39
159.000000 42.000000 126.000000 9.123757612e-39
159.000000 42.000000 127.000000 9.861322651e-39
175.000000 26.000000 95.000000 7.558238178e-39
175.000000 27.000000 95.000000 7.742630839e-39
174.000000 28.000000 95.000000 8.388358980e-39
174.000000 29.000000 95.000000 8.756782767e-39
175.000000 28.000000 94.000000 8.295804618e-39
175.000000 28.000000 95.000000 8.203608988e-39
175.000000 29.000000 94.000000 8.572391507e-39
175.000000 29.000000 95.000000 8.756782767e-39
175.000000 30.000000 93.000000 8.941172626e-39
175.000000 31.000000 93.000000 9.217400783e-39
174.000000 30.000000 95.000000 9.033368255e-39
174.000000 31.000000 95.000000 9.217399382e-39
175.000000 30.000000 94.000000 9.033008122e-39
175.000000 30.000000 95.000000 9.033368255e-39
175.000000 31.000000 94.000000 9.309595011e-39
191.000000 14.000000 71.000000 8.940452358e-39
191.000000 15.000000 71.000000 8.940811091e-39
187.000000 13.000000 78.000000 9.032647988e-39
187.000000 13.000000 79.000000 8.940812492e-39
187.000000 15.000000 77.000000 9.125203752e-39
186.000000 14.000000 79.000000 8.940812492e-39
186.000000 15.000000 79.000000 8.940812492e-39
187.000000 14.000000 78.000000 9.033008122e-39
187.000000 14.000000 79.000000 8.940812492e-39
187.000000 15.000000 78.000000 9.033008122e-39
189.000000 11.000000 79.000000 9.033008122e-39
191.000000 11.000000 77.000000 8.940812492e-39
190.000000 11.000000 78.000000 9.033008122e-39
190.000000 11.000000 79.000000 9.033008122e-39
191.000000 11.000000 78.000000 9.033008122e-39
191.000000 11.000000 79.000000 9.033008122e-39
189.000000 13.000000 75.000000 9.033008122e-39
189.000000 14.000000 74.000000 9.124843618e-39
189.000000 14.000000 75.000000 9.033008122e-39
189.000000 15.000000 74.000000 9.125203752e-39
189.000000 15.000000 75.000000 9.125203752e-39
191.000000 12.000000 73.000000 8.848616862e-39
191.000000 13.000000 72.000000 8.940452358e-39
191.000000 13.000000 73.000000 8.940812492e-39
190.000000 12.000000 74.000000 8.940812492e-39
190.000000 12.000000 75.000000 8.940812492e-39
190.000000 13.000000 74.000000 9.033006720e-39
190.000000 13.000000 75.000000 9.033008122e-39
191.000000 12.000000 74.000000 8.940811091e-39
191.000000 12.000000 75.000000 8.940812492e-39
191.000000 13.000000 74.000000 8.940812492e-39
190.000000 14.000000 73.000000 9.033008122e-39
190.000000 15.000000 72.000000 9.033008122e-39
190.000000 15.000000 73.000000 9.033009523e-39
191.000000 14.000000 72.000000 8.940812492e-39
191.000000 15.000000 72.000000 9.033008122e-39
190.000000 14.000000 74.000000 9.033008122e-39
190.000000 15.000000 74.000000 9.125203752e-39
188.000000 13.000000 77.000000 9.033008122e-39
189.000000 12.000000 77.000000 9.033008122e-39
189.000000 13.000000 76.000000 9.033008122e-39
189.000000 13.000000 77.000000 9.033008122e-39
188.000000 12.000000 78.000000 9.033008122e-39
188.000000 12.000000 79.000000 8.940812492e-39
188.000000 13.000000 78.000000 9.033008122e-39
189.000000 12.000000 78.000000 9.033008122e-39
189.000000 12.000000 79.000000 9.033008122e-39
188.000000 14.000000 76.000000 9.125203752e-39
188.000000 14.000000 77.000000 9.124843618e-39
188.000000 15.000000 76.000000 9.125203752e-39
188.000000 15.000000 77.000000 9.125203752e-39
189.000000 14.000000 76.000000 9.033008122e-39
188.000000 14.000000 78.000000 9.033008122e-39
190.000000 12.000000 76.000000 9.032647988e-39
190.000000 12.000000 77.000000 9.033008122e-39
190.000000 13.000000 76.000000 9.033008122e-39
191.000000 12.000000 76.000000 8.940812492e-39
191.000000 12.000000 77.000000 8.940812492e-39
190.000000 12.000000 78.000000 9.033008122e-39
183.000000 13.000000 85.000000 8.572390106e-39
183.000000 13.000000 86.000000 8.480195878e-39
183.000000 13.000000 87.000000 8.480194476e-39
183.000000 14.000000 85.000000 8.664225602e-39
183.000000 15.000000 84.000000 8.664585736e-39
183.000000 15.000000 85.000000 8.664585736e-39
182.000000 14.000000 87.000000 8.479835744e-39
182.000000 15.000000 86.000000 8.572390106e-39
182.000000 15.000000 87.000000 8.480195878e-39
183.000000 14.000000 86.000000 8.572390106e-39
183.000000 14.000000 87.000000 8.480194476e-39
183.000000 15.000000 86.000000 8.572390106e-39
179.000000 13.000000 93.000000 8.019217728e-39
178.000000 13.000000 95.000000 7.835185201e-39
179.000000 12.000000 95.000000 7.835185201e-39
179.000000 13.000000 94.000000 7.927380831e-39
179.000000 13.000000 95.000000 7.927022098e-39
179.000000 14.000000 93.000000 8.111413358e-39
179.000000 15.000000 92.000000 8.203610389e-39
179.000000 15.000000 93.000000 8.203607587e-39
178.000000 14.000000 94.000000 8.019217728e-39
178.000000 14.000000 95.000000 7.927380831e-39
178.000000 15.000000 94.000000 8.019576461e-39
178.000000 15.000000 95.000000 7.927380831e-39
179.000000 14.000000 94.000000 8.019576461e-39
179.000000 15.000000 94.000000 8.111413358e-39
181.000000 11.000000 95.000000 7.927022098e-39
183.000000 11.000000 93.000000 8.019577862e-39
182.000000 11.000000 94.000000 7.927382232e-39
182.000000 11.000000 95.000000 7.927380831e-39
183.000000 11.000000 94.000000 8.019217728e-39
183.000000 11.000000 95.000000 7.927382232e-39
181.000000 13.000000 91.000000 8.111773492e-39
181.000000 15.000000 89.000000 8.203608988e-39
180.000000 14.000000 91.000000 8.111413358e-39
180.000000 15.000000 91.000000 8.111413358e-39
181.000000 14.000000 90.000000 8.203608988e-39
181.000000 14.000000 91.000000 8.111413358e-39
181.000000 15.000000 90.000000 8.111773492e-39
181.000000 15.000000 91.000000 8.111413358e-39
182.000000 13.000000 88.000000 8.387998846e-39
182.000000 13.000000 89.000000 8.295804618e-39
183.000000 12.000000 89.000000 8.295804618e-39
183.000000 13.000000 88.000000 8.388000248e-39
183.000000 13.000000 89.000000 8.295804618e-39
182.000000 12.000000 91.000000 8.111773492e-39
182.000000 13.000000 90.000000 8.203969122e-39
182.000000 13.000000 91.000000 8.111773492e-39
183.000000 12.000000 90.000000 8.295804618e-39
183.000000 12.000000 91.000000 8.203608988e-39
183.000000 13.000000 90.000000 8.295804618e-39
182.000000 14.000000 88.000000 8.388000248e-39
182.000000 14.000000 89.000000 8.295804618e-39
182.000000 15.000000 88.000000 8.388000248e-39
182.000000 15.000000 89.000000 8.295804618e-39
182.000000 14.000000 90.000000 8.203608988e-39
180.000000 12.000000 93.000000 8.019217728e-39
180.000000 13.000000 92.000000 8.111413358e-39
180.000000 13.000000 93.000000 8.019577862e-39
181.000000 12.000000 93.000000 8.019217728e-39
181.000000 13.000000 92.000000 8.111413358e-39
180.000000 12.000000 94.000000 7.927022098e-39
180.000000 12.000000 95.000000 7.835186602e-39
180.000000 13.000000 94.000000 7.927382232e-39
181.000000 12.000000 94.000000 7.927382232e-39
181.000000 12.000000 95.000000 7.927022098e-39
180.000000 14.000000 92.000000 8.111413358e-39
180.000000 15.000000 92.000000 8.111773492e-39
182.000000 12.000000 92.000000 8.111413358e-39
182.000000 12.000000 93.000000 8.019576461e-39
182.000000 13.000000 92.000000 8.111413358e-39
183.000000 12.000000 92.000000 8.111413358e-39
183.000000 12.000000 93.000000 8.019577862e-39
182.000000 12.000000 94.000000 8.019217728e-39
187.000000 11.000000 84.000000 8.756781366e-39
187.000000 11.000000 85.000000 8.756422633e-39
186.000000 11.000000 87.000000 8.572390106e-39
187.000000 11.000000 86.000000 8.664585736e-39
187.000000 11.000000 87.000000 8.572391507e-39
185.000000 13.000000 82.000000 8.756781366e-39
185.000000 13.000000 83.000000 8.756421232e-39
185.000000 14.000000 81.000000 8.756421232e-39
185.000000 15.000000 80.000000 8.848615461e-39
185.000000 15.000000 81.000000 8.756421232e-39
184.000000 14.000000 82.000000 8.756421232e-39
184.000000 14.000000 83.000000 8.664585736e-39
184.000000 15.000000 82.000000 8.664225602e-39
184.000000 15.000000 83.000000 8.664225602e-39
185.000000 14.000000 82.000000 8.756421232e-39
185.000000 15.000000 82.000000 8.664225602e-39
186.000000 12.000000 81.000000 8.848616862e-39
186.000000 13.000000 80.000000 8.940452358e-39
186.000000 13.000000 81.000000 8.848616862e-39
187.000000 12.000000 80.000000 8.940812492e-39
187.000000 12.000000 81.000000 8.940812492e-39
187.000000 13.000000 80.000000 8.940812492e-39
187.000000 13.000000 81.000000 8.848975594e-39
186.000000 12.000000 82.000000 8.848616862e-39
186.000000 12.000000 83.000000 8.756781366e-39
186.000000 13.000000 82.000000 8.848616862e-39
187.000000 12.000000 82.000000 8.848618263e-39
187.000000 12.000000 83.000000 8.848616862e-39
186.000000 14.000000 80.000000 8.848616862e-39
186.000000 14.000000 81.000000 8.848616862e-39
186.000000 15.000000 80.000000 8.848616862e-39
184.000000 13.000000 84.000000 8.664227004e-39
184.000000 13.000000 85.000000 8.664225602e-39
185.000000 12.000000 84.000000 8.664585736e-39
185.000000 12.000000 85.000000 8.664227004e-39
185.000000 13.000000 84.000000 8.664585736e-39
184.000000 12.000000 86.000000 8.572390106e-39
184.000000 12.000000 87.000000 8.480195878e-39
184.000000 13.000000 86.000000 8.572390106e-39
184.000000 13.000000 87.000000 8.480195878e-39
185.000000 12.000000 86.000000 8.572390106e-39
185.000000 12.000000 87.000000 8.480195878e-39
184.000000 14.000000 84.000000 8.664227004e-39
184.000000 14.000000 85.000000 8.664225602e-39
184.000000 15.000000 84.000000 8.664585736e-39
186.000000 12.000000 84.000000 8.756421232e-39
186.000000 12.000000 85.000000 8.664585736e-39
187.000000 12.000000 84.000000 8.756781366e-39
187.000000 12.000000 85.000000 8.756421232e-39
186.000000 12.000000 86.000000 8.664227004e-39
186.000000 12.000000 87.000000 8.572390106e-39
189.000000 11.000000 80.000000 8.940812492e-39
189.000000 11.000000 81.000000 8.940812492e-39
188.000000 11.000000 82.000000 8.940812492e-39
188.000000 11.000000 83.000000 8.848618263e-39
189.000000 11.000000 82.000000 8.940812492e-39
189.000000 11.000000 83.000000 8.848976996e-39
190.000000 11.000000 80.000000 9.033008122e-39
190.000000 11.000000 81.000000 8.940813893e-39
191.000000 11.000000 80.000000 9.033008122e-39
191.000000 11.000000 81.000000 9.033008122e-39
190.000000 11.000000 82.000000 8.940812492e-39
190.000000 11.000000 83.000000 8.940812492e-39
191.000000 11.000000 82.000000 8.940813893e-39
191.000000 11.000000 83.000000 8.940812492e-39
188.000000 11.000000 84.000000 8.848616862e-39
188.000000 11.000000 85.000000 8.756781366e-39
189.000000 11.000000 84.000000 8.848616862e-39
189.000000 11.000000 85.000000 8.848616862e-39
188.000000 11.000000 86.000000 8.756422633e-39
188.000000 11.000000 87.000000 8.664585736e-39
189.000000 11.000000 86.000000 8.756422633e-39
189.000000 11.000000 87.000000 8.664585736e-39
190.000000 11.000000 84.000000 8.848976996e-39
190.000000 11.000000 85.000000 8.848616862e-39
191.000000 10.000000 85.000000 8.848976996e-39
191.000000 11.000000 84.000000 8.940812492e-39
191.000000 11.000000 85.000000 8.848618263e-39
190.000000 10.000000 87.000000 8.664585736e-39
190.000000 11.000000 86.000000 8.756781366e-39
190.000000 11.000000 87.000000 8.756422633e-39
191.000000 10.000000 86.000000 8.848616862e-39
191.000000 10.000000 87.000000 8.756422633e-39
188.000000 12.000000 80.000000 8.940812492e-39
188.000000 12.000000 81.000000 8.940812492e-39
189.000000 12.000000 80.000000 8.940812492e-39
188.000000 12.000000 82.000000 8.848976996e-39
188.000000 12.000000 83.000000 8.848616862e-39
185.000000 11.000000 90.000000 8.295804618e-39
185.000000 11.000000 91.000000 8.203969122e-39
186.000000 11.000000 88.000000 8.480195878e-39
186.000000 11.000000 89.000000 8.480194476e-39
187.000000 11.000000 88.000000 8.572390106e-39
187.000000 11.000000 89.000000 8.480195878e-39
186.000000 11.000000 90.000000 8.388000248e-39
186.000000 11.000000 91.000000 8.295804618e-39
187.000000 11.000000 90.000000 8.388000248e-39
187.000000 11.000000 91.000000 8.387998846e-39
184.000000 11.000000 92.000000 8.203608988e-39
184.000000 11.000000 93.000000 8.111413358e-39
185.000000 11.000000 92.000000 8.203608988e-39
185.000000 11.000000 93.000000 8.111413358e-39
184.000000 11.000000 94.000000 8.019577862e-39
184.000000 11.000000 95.000000 7.927382232e-39
185.000000 10.000000 95.000000 8.019217728e-39
185.000000 11.000000 94.000000 8.019577862e-39
185.000000 11.000000 95.000000 8.019217728e-39
186.000000 11.000000 92.000000 8.203608988e-39
186.000000 11.000000 93.000000 8.111773492e-39
187.000000 10.000000 92.000000 8.295804618e-39
187.000000 10.000000 93.000000 8.203608988e-39
187.000000 11.000000 92.000000 8.295804618e-39
187.000000 11.000000 93.000000 8.203608988e-39
186.000000 10.000000 94.000000 8.111413358e-39
186.000000 10.000000 95.000000 8.019217728e-39
186.000000 11.000000 94.000000 8.111413358e-39
187.000000 10.000000 94.000000 8.111413358e-39
187.000000 10.000000 95.000000 8.019577862e-39
184.000000 12.000000 88.000000 8.388000248e-39
184.000000 12.000000 89.000000 8.388000248e-39
185.000000 12.000000 88.000000 8.480194476e-39
185.000000 12.000000 89.000000 8.388000248e-39
184.000000 12.000000 90.000000 8.295804618e-39
184.000000 12.000000 91.000000 8.203969122e-39
185.000000 12.000000 90.000000 8.296163350e-39
185.000000 12.000000 91.000000 8.295804618e-39
186.000000 12.000000 88.000000 8.480195878e-39
186.000000 12.000000 89.000000 8.480194476e-39
184.000000 12.000000 92.000000 8.203608988e-39
188.000000 11.000000 88.000000 8.572390106e-39
188.000000 11.000000 89.000000 8.480195878e-39
189.000000 11.000000 88.000000 8.572391507e-39
189.000000 11.000000 89.000000 8.572031374e-39
188.000000 10.000000 91.000000 8.387998846e-39
188.000000 11.000000 90.000000 8.388000248e-39
188.000000 11.000000 91.000000 8.388000248e-39
189.000000 10.000000 90.000000 8.480194476e-39
189.000000 10.000000 91.000000 8.388000248e-39
189.000000 11.000000 90.000000 8.480194476e-39
190.000000 10.000000 88.000000 8.664227004e-39
190.000000 10.000000 89.000000 8.572390106e-39
190.000000 11.000000 88.000000 8.664227004e-39
190.000000 11.000000 89.000000 8.572390106e-39
191.000000 10.000000 88.000000 8.664585736e-39
191.000000 10.000000 89.000000 8.572391507e-39
190.000000 10.000000 90.000000 8.480195878e-39
190.000000 10.000000 91.000000 8.388000248e-39
191.000000 10.000000 90.000000 8.572031374e-39
191.000000 10.000000 91.000000 8.388000248e-39
188.000000 10.000000 92.000000 8.295804618e-39
188.000000 10.000000 93.000000 8.203608988e-39
188.000000 11.000000 92.000000 8.295804618e-39
189.000000 10.000000 92.000000 8.295804618e-39
189.000000 10.000000 93.000000 8.203969122e-39
188.000000 10.000000 94.000000 8.111773492e-39
188.000000 10.000000 95.000000 8.111413358e-39
189.000000 10.000000 94.000000 8.203608988e-39
189.000000 10.000000 95.000000 8.111773492e-39
190.000000 9.000000 95.000000 8.203608988e-39
191.000000 9.000000 95.000000 8.203608988e-39
190.000000 10.000000 92.000000 8.295804618e-39
190.000000 10.000000 93.000000 8.203969122e-39
191.000000 10.000000 92.000000 8.296164752e-39
191.000000 10.000000 93.000000 8.295804618e-39
190.000000 10.000000 94.000000 8.203610389e-39
190.000000 10.000000 95.000000 8.203608988e-39
191.000000 10.000000 94.000000 8.203969122e-39
191.000000 10.000000 95.000000 8.203608988e-39
191.000000 16.000000 71.000000 8.940812492e-39
191.000000 17.000000 71.000000 9.124843618e-39
187.000000 16.000000 77.000000 9.217039248e-39
186.000000 16.000000 79.000000 9.033006720e-39
186.000000 17.000000 79.000000 9.125202350e-39
187.000000 16.000000 78.000000 9.125203752e-39
187.000000 17.000000 78.000000 9.217397980e-39
187.000000 17.000000 79.000000 9.217037846e-39
186.000000 18.000000 79.000000 9.124843618e-39
187.000000 18.000000 78.000000 9.309232075e-39
187.000000 18.000000 79.000000 9.308873343e-39
187.000000 19.000000 78.000000 9.585098697e-39
187.000000 19.000000 79.000000 9.493623335e-39
187.000000 20.000000 79.000000 9.585460232e-39
189.000000 16.000000 74.000000 9.125203752e-39
189.000000 16.000000 75.000000 9.125205153e-39
189.000000 17.000000 74.000000 9.124843618e-39
189.000000 17.000000 75.000000 9.125203752e-39
189.000000 18.000000 75.000000 9.401429106e-39
189.000000 19.000000 75.000000 9.678015996e-39
190.000000 16.000000 72.000000 9.033009523e-39
190.000000 16.000000 73.000000 9.125203752e-39
190.000000 17.000000 73.000000 9.124843618e-39
191.000000 16.000000 72.000000 9.033008122e-39
191.000000 17.000000 72.000000 9.125202350e-39
191.000000 17.000000 73.000000 9.125202350e-39
190.000000 16.000000 74.000000 9.125203752e-39
190.000000 17.000000 74.000000 9.125202350e-39
190.000000 18.000000 73.000000 9.401429106e-39
191.000000 18.000000 72.000000 9.585821767e-39
191.000000 18.000000 73.000000 9.678015996e-39
191.000000 19.000000 73.000000 9.862407256e-39
190.000000 18.000000 74.000000 9.493626137e-39
190.000000 18.000000 75.000000 9.493624736e-39
190.000000 19.000000 74.000000 9.770213027e-39
190.000000 19.000000 75.000000 9.770211626e-39
191.000000 19.000000 74.000000 9.862407256e-39
188.000000 16.000000 76.000000 9.217399382e-39
188.000000 16.000000 77.000000 9.217399382e-39
188.000000 17.000000 76.000000 9.125203752e-39
188.000000 17.000000 77.000000 9.125202350e-39
188.000000 18.000000 76.000000 9.309234878e-39
