# .PCD v0.7 - Point Cloud Data file format
VERSION 0.7
FIELDS x y z rgb
SIZE 4 4 4 4
TYPE F F F F
COUNT 1 1 1 1
WIDTH 1146
HEIGHT 1
VIEWPOINT 0 0 0 1 0 0 0
POINTS 1146
DATA ascii
199 960 170 8.3843821e-39
204.89172 964.29938 174.4395 8.9361167e-39
278.66669 967.2334 177.26668 7.5542627e-39
281.33334 963.86487 173.81982 7.8308496e-39
208.48485 970.96973 173.54546 8.3840248e-39
214.18243 975.58789 174.70271 9.7651501e-39
220.66667 978.80005 177.20001 1.2160789e-38
268.07144 978.57147 178.21429 8.7528031e-39
274.80368 974.6687 174.55827 7.6460982e-39
280 970.25 170.75 7.7386526e-39
218.66667 980 171.16667 1.1976031e-38
224.89844 981.97656 174.13281 9.9477365e-39
232.49438 986.85394 175.49438 9.9470107e-39
241.5 989 179 8.6573592e-39
257.55557 988 177.44444 7.7379323e-39
263.94409 984.07452 174.32919 8.2903844e-39
270.58823 980.47058 171.64706 8.1981902e-39
235.26718 994.19849 173.48091 1.2343011e-38
244.31914 994.5957 175.85815 1.0868603e-38
254.52147 993.87726 174.32515 1.2067509e-38
260 990.25 170.75 1.1884559e-38
236.70834 1000.6667 170.58334 1.2433405e-38
245.11765 1002.5765 171.69412 1.1973868e-38
252.17308 1002.2501 171.73077 1.3078054e-38
235.94029 118.07462 186.41791 1.0320488e-38
244.55933 117.6356 184.54237 1.041196e-38
254.50421 117.95799 184.64706 9.3992585e-39
263.52631 118.67105 185.82895 8.4787469e-39
270 119 188.5 8.5709426e-39
227.5 125.45454 185.26363 1.0869317e-38
232.93974 121.26505 182.91565 1.041232e-38
241.2 120 180.2 1.0688183e-38
259 120 180 8.9393635e-39
266.02438 119.99999 182.14633 8.4787469e-39
274.56363 120.65454 184.41818 9.0315606e-39
284.59998 122.89565 184.5739 9.8613198e-39
294.7388 126.01492 184.46268 9.9535169e-39
300.16669 128.83334 186.5 9.8613212e-39
228.60606 131 185.81819 1.2512586e-38
230.90527 135.47369 184.23158 1.2606227e-38
299 134.875 180.25 1.0686735e-38
300.78378 134.24324 184.62163 1.0867158e-38
234.2029 144.45653 184.5145 9.028339e-39
298.07608 145.5761 183.91304 1.1871927e-38
300.58975 141.64102 186.30769 1.333983e-38
238.09091 152.37662 184.20779 9.5681836e-39
241.42105 157.4386 184.91228 8.6530769e-39
297.1145 154.68703 184.45038 1.0215349e-38
246.25363 163.99275 184.47102 7.8280176e-39
250.30771 168.07693 187.84616 1.2321452e-38
295.03906 164.53906 184.6875 7.5442014e-39
249 170 182.5 6.3528875e-39
252.52112 174.35915 184.5845 9.1986892e-39
293.10144 174.5145 184.88406 6.8145733e-39
255.959 184.54097 184.30327 1.1583193e-38
292.63513 184.5 185.12839 8.2810489e-39
258.43924 193.8598 184.88785 1.2236452e-38
260 197.38889 181.44444 1.2425143e-38
289 195.11429 181.34286 9.0125015e-39
292.74802 194.28346 186.31496 8.093778e-39
258.89191 203.94595 187.89189 8.5702377e-39
260.34567 204.69136 183.11111 1.0499128e-38
288.41934 205.01613 182.24193 6.8988446e-39
292.0889 204.36667 187.06667 6.3460295e-39
259 214.5 188.83334 4.9857919e-39
260.55554 214.45454 184.04041 5.4511001e-39
287.26169 214.83177 183.51401 3.7771608e-39
291.58929 213.83929 188.00002 3.5927639e-39
258.82352 225.08824 188.23529 7.5499859e-39
260.65909 224.48865 183.35228 6.3590126e-39
286.53333 224.76668 184.38667 3.3237566e-39
290.25 222 187.75 3.7825712e-39
258.67691 235.04616 186.81538 9.8552186e-39
260.08475 233.66101 182.30508 9.9416633e-39
286.70667 234.30667 184.75334 5.8958568e-39
290.25 234.5 183.79167 5.7114683e-39
257.60001 244.45001 184.55 8.3901765e-39
285.67133 244.55943 185.4895 7.0872071e-39
292.44156 245.87013 181.27272 7.3641401e-39
304.20547 245.46574 180.13698 1.0404058e-38
255.87903 254.35483 184.55644 6.6492873e-39
284.92661 252.90825 186.90825 7.4664293e-39
293.50867 254.42773 183.526 8.6494952e-39
303.5 254.58696 180.95653 1.0118503e-38
253.61906 264.43652 184.53175 6.464173e-39
293.84415 264.30521 185.05194 8.2039915e-39
303.01074 264.29031 181.92473 9.027651e-39
248.8125 277.875 187.75 1.0141886e-38
251.24562 274.0614 184.21053 8.755708e-39
294.51907 274.35876 186.47328 6.0982786e-39
302.37347 274.44577 182.49397 6.9302056e-39
247.38335 284.80002 184.76668 1.0787256e-38
250 280.375 181.625 1.1432627e-38
295.38336 284.43335 187.16667 7.3800056e-39
300.85916 284.11267 182.18309 9.3161125e-39
244.75385 294.53076 184.4077 1.0143331e-38
297.24408 294.68503 185.44882 1.3737157e-38
300.00003 291.20001 181.66667 1.4843506e-38
243.09677 304.50806 184.50806 1.1338259e-38
296.86508 304.32541 184.52382 1.4014829e-38
241.49574 314.53848 184.47009 1.2527066e-38
295.09848 314.56818 184.27274 9.872889e-39
238.875 326.25 186.97501 1.0038904e-38
240.34616 323.51282 183.32051 1.0220408e-38
293.28244 324.58014 184.34351 1.1528796e-38
238.49515 334.91263 184.94174 9.7619552e-39
240.00002 332.06668 180.86667 9.3971327e-39
288.75 335.60001 180.40001 9.684525e-39
292.02542 334.31357 184.87288 1.0791233e-38
236.83899 344.51694 184.3983 1.0215008e-38
288.18643 344.86441 181.35593 9.7749102e-39
291.21951 344.10974 186.19511 1.0422447e-38
234.29752 354.62808 184.39668 1.1889985e-38
287.74713 354.97702 182.58621 1.4188734e-38
290.3913 353.52176 187.21739 1.4640366e-38
228.625 367.82501 185.425 1.152084e-38
231.20653 363.08698 184.28261 1.1061309e-38
287.25 364.62503 183.99167 1.4648273e-38
290 363 188.66667 1.3892383e-38
218.8 378.80002 188.40001 9.4910898e-39
224.80891 374.75159 184.52229 1.0598159e-38
286.71756 374.39694 184.41985 1.4927737e-38
208.75 388.83334 186.91667 9.9437638e-39
214.33333 384.49384 184.42593 8.3796793e-39
220.71429 380.4762 181.7619 8.5673258e-39
285.74628 384.40298 184.35074 1.4279841e-38
205.92143 394.40714 184.53572 8.8475281e-39
210 390 180 7.2751465e-39
285.21094 394.40625 184.55469 1.1606538e-38
188.8 409 187.8 5.7179409e-39
194.68275 406.20001 184.74483 5.2515468e-39
201.43103 401.6207 184.39655 6.0802256e-39
284.63281 404.48438 184.58594 1.2247929e-38
177.7 418.39999 184.64 3.7868872e-39
184.45833 413.58334 184.45833 5.2616557e-39
190.27274 410.18182 181.72728 4.7023429e-39
285.00848 414.41525 184.6017 1.1980372e-38
172.77464 423.95068 184.70422 7.567278e-39
284.67502 424.65002 184.55 1.1244271e-38
174.18248 434.25546 184.64233 7.2917841e-39
285.61111 434.30161 184.17461 8.9491418e-39
169 449 180.5 9.7741913e-39
173.20863 444.64029 184.51079 8.7636505e-39
285.99191 444.70966 184.1129 9.043501e-39
167.79091 454.98181 183.98181 7.9328067e-39
170.51852 451.03705 186.7037 9.0387927e-39
286.57376 454.43439 184.30327 8.3992162e-39
290.76471 457.41177 180.17647 1.1897947e-38
164.87312 464.44775 184.41045 6.456592e-39
286.8125 464.25 185.91667 9.3200879e-39
292.26251 465.35001 181.125 9.3204411e-39
159 478.63638 182.45454 4.6141227e-39
160.95689 473.8793 184.48276 5.5349944e-39
287.47693 474.26154 187.1077 1.0793406e-38
294.20547 474.67123 182.54794 9.4115549e-39
300.375 477.375 180 1.0974907e-38
158.27928 484.64865 184.37839 4.8921543e-39
160 480.39999 188.2 7.1016069e-39
288.1282 483.89743 188.23077 1.1438411e-38
294.71918 484.49313 184.55479 1.1068907e-38
301.42856 485.0408 180.67346 9.8703652e-39
156.74193 494.54837 184.41934 5.6318844e-39
288.875 491.875 188.875 9.8714554e-39
294.75525 494.47552 186.41957 9.5026743e-39
302 494.80246 181.46913 9.6856222e-39
154.46457 504.4567 184.56693 6.7407599e-39
295.71027 504.10278 187.50467 1.1713553e-38
302.44659 504.55341 182.54369 1.2634064e-38
152.48001 514.50403 184.62401 7.7545517e-39
297.06451 514.27417 188.16129 1.1344053e-38
302.91891 514.36938 183.43243 1.0147678e-38
149 528.66669 180.33334 1.0052949e-38
150.98291 524.48718 184.76924 1.0146225e-38
298.07315 523.9024 188.51219 1.1897947e-38
303.11569 524.74377 183.8595 1.1345141e-38
148.88708 535.46771 182.79031 1.0606121e-38
150.24529 533.2453 186.77359 8.6732626e-39
298.66669 534.5 188.66667 9.5030443e-39
302.96033 534.30164 183.90477 1.1067472e-38
317.17648 537.88239 180.05882 1.0424265e-38
148.04385 544.5 184.60527 6.7360711e-39
150 545.10004 188.90001 5.7244556e-39
298.54547 545.06061 188.12122 1.0887051e-38
303.496 544.73602 182.96001 1.0331705e-38
314.94019 545.11115 181.19659 1.0515737e-38
320 540 180 1.3096125e-38
147.90001 553.95001 182.96251 8.3034095e-39
152.57471 556.11493 187.24138 1.5949499e-38
297.75409 554.81964 187.59015 1.1623891e-38
304.43796 554.43066 183.37227 9.0398829e-39
314.10318 554.54767 182.74605 1.0793772e-38
148.66667 560.33337 180.83334 9.5044974e-39
155.84615 563.34265 183.45454 1.2541526e-38
160.28947 565.1579 187.97368 1.0513224e-38
297.30435 564.56525 187.13043 1.0333513e-38
304.49277 564.60144 185.5145 1.0514291e-38
313.09009 564.18921 183.03604 1.2818821e-38
157.38371 574.19769 182.47675 1.0791618e-38
162.18182 575.65912 187.0341 1.3003224e-38
296.96719 574.4754 188.08195 9.410113e-39
305.10666 574.67334 187.00667 1.0700849e-38
311.43283 573.28357 181.98508 1.1527356e-38
158.44444 580.55554 180.55556 8.3963618e-39
163.35257 584.51282 184.88461 7.8442418e-39
297.39999 580.20001 189 7.4758124e-39
304.92453 584.52197 184.50943 1.0789789e-38
310 580.5 180 1.3458765e-38
158.43138 596.05884 182.23531 8.2137376e-39
161.2234 593.53192 186.02127 6.6485783e-39
298 596.06 187.14 1.0052222e-38
303.16913 594.33087 182.86765 1.1616296e-38
158.51613 602.29028 181.2258 1.0056229e-38
162.45239 604.85718 185.48413 9.3193803e-39
298.05884 600.58826 187.58824 7.5596829e-39
305.12222 601.05554 185.40001 5.7154116e-39
314.63638 602.96216 184.38637 5.9005217e-39
324.38211 607.17883 184.47154 7.3738455e-39
330 609 183.5 7.9270193e-39
164.28662 614.47772 184.77707 1.1529166e-38
329 610 189 9.9524323e-39
334.90076 611.60303 184.47328 8.8471679e-39
344.37796 616.39368 184.51968 9.5829253e-39
350.77777 618.77777 182.5 9.7669522e-39
165.44737 624.27631 184.26315 1.1713562e-38
170.21429 626.57147 188.78572 1.1619204e-38
348.55557 620.22223 188.11111 1.0226849e-38
355.22516 623.07947 185.31126 1.050271e-38
363.66364 626.73633 183.31818 1.0318678e-38
370.33334 628.83337 180.66667 1.0042452e-38
165.94118 634.46222 183.52101 9.9625721e-39
170.33334 634.50006 188.66667 1.069905e-38
358.5 630 189 1.2066787e-38
365.61908 631.39685 187.44446 1.1331023e-38
374.64151 633.83014 184.67294 1.0870765e-38
382.70886 637.2785 182.75949 1.0686375e-38
166.58195 644.68848 184.2213 8.6729109e-39
170.21053 643 188.68422 9.0416934e-39
326.31146 647.55731 187.09834 1.1999166e-38
334.63235 646.36029 184.83824 1.1260156e-38
343.07767 647.48541 184.92233 1.0799178e-38
379 640 189 1.0501984e-38
386.05618 641.44946 185.82022 1.0594179e-38
394.12988 645.72076 184.16234 1.0409791e-38
400.78574 648.78577 181.42857 1.0778209e-38
165.78986 654.51453 184.72464 9.5008652e-39
316.38751 655.58752 187.15001 8.5886494e-39
324.22449 654.04761 183.82312 9.9686999e-39
331.93103 653.67242 180.56897 1.0981406e-38
347.22919 650.58337 183.1875 1.1444187e-38
354.25531 654.02124 184.55319 1.2550175e-38
364.62143 654.76428 184.48572 1.4023862e-38
373.07071 657.41412 185.40404 1.2824958e-38
380 659 189 8.4021113e-39
398.30771 650.69232 188.15385 8.4762148e-39
404.7059 653.94708 185.06471 9.4928975e-39
411.75 657.6875 182.375 8.9386377e-39
164.86986 664.55481 184.63698 9.8696492e-39
315.40173 664.53851 186.30771 9.1227235e-39
324.67477 664.5528 182.82925 1.1878856e-38
331.48779 664.60974 180.48779 1.0596053e-38
376.76669 661.18335 182.66667 1.3378494e-38
384.4295 664.21796 184.33975 1.3009352e-38
393.68143 667.30975 185.53098 1.2271075e-38
404.56033 664.8017 187.92241 1.2270003e-38
414.53061 664.33331 183.98639 9.6881558e-39
420.95834 666.58337 180.41667 1.2636591e-38
163.93877 674.48297 184.55101 1.0330262e-38
309 677.5 189 1.4167894e-38
314.37704 674.7049 186.82787 1.0396163e-38
324.4567 674.55121 182.79527 1.1505749e-38
331 674 180.2973 9.5743367e-39
396.73334 670.77777 181.97778 1.1258726e-38
404.46774 673.18549 183.32257 1.1717554e-38
414.5145 674.47827 182.25363 1.13495e-38
420.58334 673.54169 180.20834 9.780727e-39
158.8125 686.9375 180.625 6.8308101e-39
162.45113 684.18799 184.94737 8.9484131e-39
308.20001 684.7334 188.73334 1.3436433e-38
314.48386 684.59674 186.51613 1.2147132e-38
324.272 684.36804 182.15201 1.288794e-38
330.33334 680.33337 180 1.0568325e-38
418 680 180 1.2273966e-38
157.53685 695.32635 183.28423 7.9364248e-39
160.90741 692.83331 187.11111 1.0973459e-38
308.35294 694.38239 188.76471 9.3114069e-39
314.72357 694.69104 185.93495 9.2159715e-39
323.25253 694.31311 181.72728 9.2134561e-39
155.47287 704.32556 184.8062 1.0147309e-38
308.80002 703.20001 189 9.6762125e-39
314.39999 704.48572 186.16429 1.1427571e-38
322.41177 704.42352 181.32942 1.1888549e-38
152.88429 714.52063 184.53719 1.1161097e-38
309 716 189 1.3639532e-38
314.4762 714.34015 185.53741 1.1613765e-38
321.26416 714.03772 180.75471 7.0057959e-39
151.04237 724.52545 184.52542 1.162244e-38
307.94287 726.28571 188.42857 1.2989825e-38
314.40643 724.50964 184.29031 1.5110325e-38
320.65387 723.69232 180.34616 1.2900883e-38
149 737.83337 180.33334 1.0885233e-38
150.65137 734.40363 184.71559 1.1254379e-38
299 739 189 1.373282e-38
305.5 735.06036 186.84483 1.3823218e-38
313.91934 734.17737 182.17741 1.4009409e-38
320 730 180 1.0688913e-38
148.83334 745.71429 181.57143 1.124897e-38
150.45 743.95001 186.03751 1.0333147e-38
288.375 748.75 188.5 1.879058e-38
295.5 746.73218 186.59822 1.5569506e-38
304.44653 744.57861 183.94339 1.2902695e-38
311.88235 742.96082 180.88235 1.1889265e-38
148.42857 754.54547 182.57143 1.2694562e-38
151.03226 755.09674 187.40321 1.004864e-38
277.82352 758 188.58824 1.8326721e-38
285.16025 754.9231 185.33975 1.8235964e-38
292.8718 752.05127 181.66667 1.7499117e-38
302.4375 750.0625 180.5625 1.3722346e-38
148.10909 763.79999 181.58182 1.048656e-38
153.97858 764.94287 186.06429 1.4168606e-38
163.61429 767 187.82857 1.5938286e-38
171.00002 768.71429 188.85715 1.0423542e-38
267.19232 767.73077 188.42308 1.87877e-38
275.09027 765.05554 185.97917 1.8327081e-38
282.79379 763.45361 181.90721 1.8143047e-38
148.66667 772 180.25 1.4092943e-38
154.65041 773.67474 181.88617 1.5283564e-38
164.73973 774.36304 183.32877 1.1609101e-38
174.32652 774.74829 185.90475 1.2351345e-38
183.89287 776.75 187.4881 1.2992374e-38
193.22858 778.20001 188.39999 1.2165139e-38
204.5 779 189 1.8519029e-38
214.9091 778.90912 189 1.4007234e-38
225.20456 777.54547 188.6591 1.2719403e-38
234.70271 776.77026 188.28378 1.4467497e-38
244.85393 776.01123 187.64046 1.8789144e-38
254.83635 775.53632 187.14545 1.9156483e-38
264.73248 774.71338 185.40764 1.8971733e-38
273.53574 773.15179 182.03572 1.8511472e-38
280.20001 770.60004 180.2 1.832744e-38
167.7 780.5 180.10001 1.3640641e-38
175.12659 782.29114 181.37975 1.4189119e-38
184.84058 784.20294 182.77536 1.2441723e-38
194.55 784.5 184.65715 1.6309234e-38
204.18382 784.52203 185.875 1.6768043e-38
214.58696 784.3551 186.1087 1.5021398e-38
224.39131 784.42029 185.3261 1.3180007e-38
234.54814 784.56293 184.16296 1.8236694e-38
244.57895 784.4812 183.13535 1.8971378e-38
254.16406 784.13281 182.21875 1.887918e-38
263.13235 782.20587 181.23529 1.8787343e-38
188 790.16669 180.16667 1.3914677e-38
195.29787 791.17017 180.65956 1.6858792e-38
204.89474 791.9342 181.13158 1.5665673e-38
214.44118 792.29413 181.20589 1.373246e-38
224.25714 791.91431 181.10001 1.5753906e-38
234.06667 791.15558 180.55556 1.8694789e-38
243.45 790.35004 180.15001 1.8878464e-38
250.5 790 180 1.8786626e-38
225.34906 857.29248 184.66039 1.1698359e-38
234.54311 855.45691 184.42241 1.0869319e-38
244.55202 856.25604 184.464 1.1329214e-38
251.70908 858.45453 184.47272 1.1514325e-38
215.49619 865.28247 184.61832 1.2804347e-38
220.76471 860.44116 184.14706 1.2435565e-38
256.78824 861.67059 184.57648 1.2435558e-38
262.32559 866.87207 184.3372 1.3171684e-38
208.22223 876.23615 183.625 1.3539033e-38
211.04109 872.47943 185.9315 1.317169e-38
267.02478 873.8595 185.09917 1.3539386e-38
270.21741 878.04352 182.30435 1.4000725e-38
206.55557 884.38892 184.68256 1.3537956e-38
269 880.33337 188.66667 1.3907451e-38
271.73602 884.44806 184.58401 1.3998931e-38
204.00847 894.41528 184.58475 1.3537957e-38
273.52502 894.54169 184.46667 1.3537949e-38
202.26892 904.47906 184.55463 1.4736137e-38
275.62402 904.50403 184.42401 1.3537951e-38
199 918.25 180.25 1.4552824e-38
200.86325 914.35901 184.69232 1.5105639e-38
277.2764 914.3902 184.62601 1.123667e-38
280.30002 918.10004 180.7 8.0137933e-39
199 925.21271 182.02127 1.3447919e-38
200.09091 923.96973 186.51515 1.4460988e-38
278 922.9231 187.25 9.0272194e-39
282.01886 925.1604 183.19812 7.6460926e-39
198.94545 933.87268 182.0909 1.0041374e-38
200.28358 934.86566 186.79105 1.1515059e-38
279 931 189 7.1851158e-39
283.7702 934.63354 184.36024 8.2914634e-39
292.30435 938.30438 180.6087 8.4769393e-39
199 941.54547 180.72728 9.5814819e-39
201.16814 944.79645 184.84956 1.0501996e-38
278.67999 946.32001 188 1.2346991e-38
283.35526 943.88159 183.55263 9.7658718e-39
292.78787 941.33337 180.72728 1.0503078e-38
203.64285 954.67145 184.47144 1.0317244e-38
277.26733 955.36633 186.18811 9.4885674e-39
280.57895 953.52631 181.68422 8.2911075e-39
207.54128 963.41278 183.91742 1.0317248e-38
210.71796 967.8205 186.35898 9.0279466e-39
268.42859 968.42859 188.85715 8.6591683e-39
274.9512 964.60974 184.66463 8.1985503e-39
280 960 180 8.0145178e-39
215.14285 973.22144 184.10715 9.3970907e-39
222.50618 977.79016 185.53087 8.7528073e-39
258.39999 978.79999 188.8 9.5818407e-39
265.52634 975.86469 185.54887 9.027948e-39
272.37805 972.45117 183.13414 7.9223235e-39
226.77942 981.04413 183.55882 9.673316e-39
234.47682 984.27155 184.50331 1.0868966e-38
244.25781 987.17969 184.90625 8.9335846e-39
254.75459 984.98773 184.45398 8.6584452e-39
261.84 981.25995 182.28 9.8566241e-39
247.42859 990.00006 180.28572 8.2889369e-39
250.75 990 180.25 8.1963825e-39
236.00002 109.00001 199.00002 9.492173e-39
241.5 109 199 9.0311962e-39
226.35106 116.12766 196.28723 1.0136458e-38
234.07843 113.75817 194.27451 9.9524295e-39
244.5 113.09722 194.38889 9.4914513e-39
254.53731 114.48507 194.52238 8.8471665e-39
264.43076 116.87692 194.58461 8.2947172e-39
271.38461 118.82051 195.41026 8.0181303e-39
224.8788 124.43182 194.00758 1.1325238e-38
230 120 190 1.0320486e-38
275.89874 120.46836 193.91139 8.2947172e-39
284.56668 122.63334 194.51668 9.2163134e-39
294.71542 125.43902 194.52032 9.4929003e-39
301 128.17778 195.06667 9.4010648e-39
227.39784 132.96774 194.9785 1.2423283e-38
230.92157 137.54903 193.37256 9.9520735e-39
303.67627 134.36691 194.58994 1.0680247e-38
234.83942 144.42336 194.59123 4.3429546e-39
299 147.5 190 9.4003529e-39
303.71725 144.69655 194.58621 1.10429e-38
238.56522 151.5 194.34782 7.833044e-39
242.17 156.36 194.73999 8.8446708e-39
299 155 190 9.0240062e-39
303.72903 154.36774 194.39999 7.6443227e-39
247.02106 162.2737 194.18948 1.0951125e-38
250.9077 167.07692 194.49231 1.2508716e-38
298.22223 164.81482 190.37038 6.902792e-39
304.375 164.36185 195.33553 4.5197719e-39
253.34073 174.40741 194.54814 1.1217993e-38
298 174.65958 190.76595 6.9067675e-39
304.66428 174.37143 195.62143 5.3434019e-39
255.9854 184.49635 194.83212 8.0927116e-39
298 184.30952 190.57143 8.0044579e-39
304.41006 184.51799 195.18706 8.2788867e-39
257.375 194.74168 194.68335 4.788426e-39
298.20834 194.45834 190.83334 7.6335257e-39
304.61905 194.53741 195.517 8.0001559e-39
310 196.5 199 9.8397272e-39
257.09015 204.54097 194.52458 4.7063254e-39
296.97183 204.71831 191.12675 6.623694e-39
304.74466 204.36169 195.91489 7.1732749e-39
310 200.5 199 1.1127575e-38
256.64749 214.51799 194.41727 6.3561245e-39
296.1647 214.98824 191.36472 3.593487e-39
304.17691 214.36923 195.76923 4.4207211e-39
256.19379 224.46512 194.39536 8.285386e-39
294.60156 224.60938 192.00781 3.2344533e-39
303.46902 224.34514 196.23009 4.9771557e-39
255.95312 234.60938 194.58594 6.9200995e-39
288.625 237.875 190.125 7.1819153e-39
294.51111 234.54074 192.45926 5.252665e-39
302.44827 234.44827 196.7816 6.7224001e-39
254.25926 244.54074 194.55556 6.3712557e-39
287.44897 245.2653 190.34694 7.8197345e-39
294.61365 244.5303 192.7803 8.0023237e-39
301.41537 244.15384 197.36923 7.7376156e-39
249 259 199 1.1247512e-38
252.40442 254.41176 194.35294 6.735704e-39
286.39999 252.31111 190.33334 6.6388336e-39
295.0329 254.625 193.84868 7.2823996e-39
300.33334 252.58334 197.79167 1.1519417e-38
248.55556 266.05557 197.72223 1.041775e-38
251.1089 264 193.40594 8.1139441e-39
294.30463 264.5563 194.649 8.5799767e-39
247.16934 274.9516 195 1.0325916e-38
250.16667 271.33334 191.27779 8.5720314e-39
292.63635 274.4895 194.65733 8.2097537e-39
244.49625 284.45865 194.5564 1.0234444e-38
288.93549 286.35483 192.64516 7.1970437e-39
291.24371 284.39496 194.63867 9.5898001e-39
242.35536 294.4628 194.47932 1.023336e-38
288.17999 295.12 194.09 9.1255835e-39
291.20239 294.17859 192.9881 1.1059172e-38
239 308.20001 198.60001 1.1122577e-38
240.90517 304.30173 194.39655 1.0861806e-38
288.07895 304.38596 195.14912 1.0324477e-38
292.5 304.55557 190.88889 1.2907398e-38
238.79411 315.42648 196.33824 1.1498893e-38
240.18181 313.47272 192.14545 1.0754154e-38
287.29785 314.60638 195.79787 1.2165489e-38
292.43591 314.61539 191.44872 1.1435519e-38
238.28036 324.50467 194.51401 1.3079151e-38
240 320.33334 190.33334 1.1024999e-38
286.87912 324.26373 195.97803 1.3637364e-38
292.32877 324.39725 192.12329 1.1527352e-38
237.35399 334.61948 194.63716 1.1512932e-38
286.63043 334.17392 196.42392 1.4647177e-38
291.9231 334.23077 192.23077 1.5022466e-38
235.70589 344.47061 194.52101 1.0033147e-38
286.40002 344.77896 196.25264 1.2616386e-38
291.04547 344.54547 192.0303 1.2538611e-38
233.35201 354.59201 194.59201 1.1886744e-38
285.94495 354.66052 196.23853 1.23319e-38
290.45099 354.11765 191.72549 1.3057253e-38
227.54349 366.34784 194.97827 1.1703784e-38
230.64815 361.5 193.98148 1.2164402e-38
285.36719 364.79688 196.25 1.333957e-38
290 364.39999 191.28572 1.4723217e-38
217.22223 377.23611 195.34723 1.0043899e-38
222.80531 372.74335 193.83186 1.0506328e-38
285.53802 374.37427 195.36842 1.5291838e-38
290 370 191.5 1.7231547e-38
208.77779 388.33334 192.33333 1.1408781e-38
212.28125 383.6875 194.48438 1.0767734e-38
278.75 388.25 199 1.6123022e-38
285.7558 384.54071 195.44186 1.5480552e-38
199 399 198.5 5.8068799e-39
205.96251 395.3125 194.77501 7.0025309e-39
210 390.39999 198.2 9.8447061e-39
278.33334 395.03705 198.62964 1.5660591e-38
285.44446 394.49707 195.47368 1.4369153e-38
188.28261 408.06522 195.1087 7.5625752e-39
194.34001 403.58667 194.52 5.5292113e-39
201.16667 400.43335 192.50002 5.8065198e-39
277.88373 404.65115 198.58139 1.4812439e-38
284.87341 404.60129 195.48102 1.4996106e-38
177.70175 418.17545 194.68422 3.9720001e-39
183.89148 413.50388 194.48062 6.1836148e-39
278.33334 410.66669 199 1.4349663e-38
285.29166 414.27777 195.30556 1.2714693e-38
174.55173 424.48965 194.33794 7.8449537e-39
285.51328 424.47787 194.97345 1.1980014e-38
176.98373 434.26828 194.45528 7.2910624e-39
285.31033 434.52585 194.59483 1.1243199e-38
174.48227 444.75177 194.49644 8.3937834e-39
284.73148 444.55557 194.66667 1.1161464e-38
167.62637 456.19781 194.43956 8.8547616e-39
170.54546 451.20456 193.9091 8.5785348e-39
284.35345 454.66379 194.56897 8.6750829e-39
164.46826 464.37305 194.43652 9.0395144e-39
284 464.36792 194.34906 1.2173811e-38
161.91129 474.46774 194.46774 9.1324345e-39
284.25226 474.68469 194.27928 1.2082697e-38
159 486.73685 191.05263 7.1037677e-39
160.62 484.07999 195.25 9.5015771e-39
284.6842 484.69925 194.18797 1.0886322e-38
158.64865 495.12164 192.60811 8.2065055e-39
160.22917 493.85419 197.4375 1.0145505e-38
285.96429 494.47144 194.25 9.6877915e-39
290 498 190 1.1069269e-38
157.52892 504.7355 194.27272 6.3643963e-39
160 502.10001 198.60001 9.961835e-39
286.15445 504.54471 195.38211 1.3187602e-38
291.02563 505.35898 190.61539 1.235784e-38
156.04317 514.72662 194.38849 6.5491491e-39
286.41 514.70001 196.08 1.1160752e-38
292.21054 514.73682 191.35527 1.1160388e-38
155.73077 524.26923 193.68462 6.0921409e-39
160.59999 525.56 198.51999 7.1012425e-39
286.54651 524.22095 196.3372 1.3648218e-38
293.03848 524.64423 191.76924 1.20827e-38
154.77779 534.84314 194.24837 5.3553073e-39
160.38095 533.14288 198.71429 5.3487969e-39
286.63953 534.30231 196.95349 9.8718254e-39
293.58975 534.58124 192.3248 9.1346219e-39
154.15883 544.24707 194.34706 8.5760461e-39
163.81609 546.72412 196.97701 6.084948e-39
170.57144 548.42859 198.85715 3.8819709e-39
285.76596 544.53192 197.73404 1.1162917e-38
293.56668 544.35834 192.85001 1.0887048e-38
155.92593 552.97534 191.32098 1.3738615e-38
164.44595 554.64868 194.20946 6.5563686e-39
171.47728 555.09094 198.56819 4.986152e-39
285.09708 554.69904 197.9903 1.0149133e-38
293.16391 554.49994 193.27867 1.0610469e-38
164.39999 564.43225 194.19354 7.2021052e-39
174.3739 564.65216 198.16521 8.2029027e-39
180.73685 565.26318 199 1.511829e-38
285.55435 564.1413 198.1087 1.0517909e-38
292.68271 564.46155 192.94232 1.0058384e-38
165.98198 573.37842 192.70271 8.9516824e-39
174.26389 574.86804 196.52083 6.2733063e-39
180.52632 575.94739 198.78947 8.1175623e-39
286.85394 574.43823 197.33708 9.7828766e-39
291.98865 574.48865 192.07954 9.8736246e-39
301.60001 578.79999 190 1.5582156e-38
168.02223 585.51111 190.8889 7.8445963e-39
174.44806 584.62988 195.33766 5.2598859e-39
180.9091 583.7879 198.63637 5.3502458e-39
286.09344 584.71027 196.68224 9.3218872e-39
294.19049 584.53973 191.17462 9.1367687e-39
300.95999 583.35999 190 9.3190019e-39
166.27928 594.69373 192.51352 8.6757947e-39
173.77312 594.36139 197.57144 7.2820787e-39
285.10654 594.54913 196.83606 1.0146949e-38
293.99167 594.20837 192.39168 8.0315029e-39
167.3582 603.65668 191.61194 9.5959588e-39
174.06897 604.5448 196.3931 7.0123413e-39
180.2 606.10004 199 4.0657105e-39
285.91669 601.375 197.64584 8.5785362e-39
295.0463 602.25928 195.13889 6.4547815e-39
304.61719 603.48438 194.72656 8.8475295e-39
314.29196 605.75183 194.44525 1.0964775e-38
323.1507 607.76709 192.68494 1.0780745e-38
168.77779 612.88892 190.27779 1.208306e-38
174.25949 614.59497 194.72153 9.5941651e-39
181.19444 615.55554 198.80556 5.1720511e-39
315.7381 614.53571 198.5 1.3539049e-38
324.75 613.87878 196.4091 1.3448292e-38
334.34229 614.48322 194.10068 1.1792368e-38
341.98114 617.22644 192.07547 1.1055883e-38
174.72662 624.33813 193.71223 1.2357847e-38
182.58229 624.68353 198.44304 6.6500314e-39
315.34546 624.59998 197.79999 1.0959377e-38
324.70731 625.04065 197.26016 9.9466687e-39
334.58826 624.90759 197.2101 1.0959379e-38
344.46259 624.36731 193.95238 1.2250104e-38
352.32727 626.54541 190.98181 1.2435208e-38
175.01439 634.48206 193.29497 1.1252221e-38
182.65218 634.30438 198.17392 7.3872181e-39
337.22223 630.11115 198.77779 5.3455613e-39
345.57352 631.44116 197.10294 7.4642447e-39
354.97278 633.36053 194.89795 8.3880002e-39
364.12143 635.88574 193.77142 9.4939835e-39
372.86792 637.7547 191.66039 1.0134289e-38
174.77397 644.45892 193.58218 8.4885238e-39
181.67271 643.94543 198.29091 1.0605762e-38
318 648.46429 196.67857 1.2366868e-38
324.31335 645.25336 194.45334 1.2275754e-38
334.60345 643.17242 194.5 1.1075045e-38
344.09302 647.11627 194.91473 1.1995199e-38
354.81482 647.3457 196.92593 8.5865166e-39
364.35229 645.81818 197.38637 1.0241695e-38
374.73419 644.13293 195.91772 9.0413318e-39
383.87503 645.35004 192.56668 1.0602509e-38
391.76926 648 190.92308 8.9415356e-39
169 655 190 1.0146951e-38
174.32727 654.70905 194.4303 1.051357e-38
180.35001 652.79999 198.75 1.1894332e-38
308.75 658.25 195.75 9.7875513e-39
313.34839 653.39996 194 1.0064503e-38
320 650 190.5 9.5145741e-39
348.23529 650.17645 192 1.2179226e-38
354.17392 651.07245 192.05797 1.4025305e-38
365.5238 651.07141 192.88095 1.0149144e-38
374.57144 653.78882 194.67702 9.136082e-39
384.25696 654.82642 194.45139 8.4021225e-39
394.47931 654.56195 191.51239 1.0242058e-38
401 656.47369 190 1.1072176e-38
168.9091 664.90912 190 8.856942e-39
174.06618 664.35297 195.02206 1.14348e-38
308 664.81189 195.29703 8.8598329e-39
310.64999 663.85004 190.7 1.2152918e-38
385.65305 661.06122 191.30612 1.0980358e-38
394.35803 662.62964 190.91357 1.2639501e-38
400.28574 661.57147 190.00002 1.0150241e-38
168.375 675.47504 190.875 1.0237707e-38
171.96582 674.01715 195.51283 1.0330262e-38
306.16913 674.73529 194.19118 1.0311177e-38
310 671.66669 190.16667 1.2967899e-38
167.14961 684.94489 193.88977 1.3552406e-38
170.16667 680.77777 197.27779 1.1527715e-38
303.71622 684.52026 193.97974 1.3532935e-38
163.30769 694.37061 194.52448 1.18043e-38
298.88889 695.88892 198.03703 9.3985452e-39
302.74045 694.12976 193.06871 8.9404706e-39
157.85365 706.15851 193.09755 1.1896137e-38
160.61667 702.35004 195.90001 1.1344768e-38
298.46667 705.11115 197.82222 1.0321585e-38
303.95917 704.57141 192.42857 1.0412697e-38
155.17647 714.33087 194.5 1.1620993e-38
298.3421 713.76318 198.18422 1.0230104e-38
304.33975 714.5769 193.28847 1.2072935e-38
153.41322 724.54541 194.52892 1.2083779e-38
297.89362 725.55316 198 1.5663137e-38
303.5704 724.25348 193.28873 1.5386909e-38
153.70161 734.5 194.84677 1.1806473e-38
287.55002 738.20001 198.2 1.3003565e-38
295.10321 735.02582 195.21291 1.4562587e-38
301.27274 732.61365 191.29546 1.5208315e-38
154.70886 744.48102 194.44304 1.3622652e-38
161.00002 748.13336 198.60001 1.2169491e-38
235.80952 748.04761 199 1.3358255e-38
240.33334 748.66669 199 1.7788342e-38
276.13336 747.20001 197.58334 1.5298698e-38
284.75 744.73126 194.83125 1.4838442e-38
293 742.60974 191.79268 1.2995975e-38
155.73451 754.00885 192.43362 1.1317409e-38
164.08759 754.76642 196 1.5278195e-38
173.42374 757.33899 197.86441 1.6763357e-38
181.2 758.79999 199 1.0583447e-38
227.27501 756.82501 198 1.4648266e-38
234.45038 754.56488 196.96184 1.3915042e-38
244.00934 755.11212 197.757 1.3366211e-38
254.5921 756.36841 197.73685 1.3733901e-38
265 755.29559 196.95651 1.6491467e-38
274.1908 754.15131 193.73027 1.7684958e-38
281.80646 751.25806 191.16129 1.8881334e-38
157.4375 760.75 190.375 1.2793634e-38
165.29546 762.51141 191.6591 1.5184921e-38
174.66197 764.27466 193.44366 1.1702734e-38
184.32433 764.54059 195.88515 1.1521944e-38
194.28999 765.83997 196.89999 1.501779e-38
204.5914 766.37634 197.32259 1.207331e-38
214.5 765.875 197.35417 1.6309229e-38
224.62001 764.56 195.52 1.5111774e-38
234.50421 764.58826 193.2269 1.2812677e-38
244.46341 764.5528 193.86992 1.3732456e-38
254.6767 764.6015 193.4812 1.7962266e-38
264.112 763.76001 192.39201 1.860295e-38
271.51852 761.33331 190.77779 1.8418918e-38
177.55556 770.33331 190.11111 1.1981825e-38
185.06329 772.08862 191.39241 1.4465335e-38
194.7807 773.48248 192.04385 1.317857e-38
204.23256 774.38757 192.2093 1.6678736e-38
214.52173 774.33911 192.30434 1.6399983e-38
223.9899 772.80811 191.34343 1.4653696e-38
234.54387 772.01758 190.47368 1.2350246e-38
243.82224 771.15558 190.48889 1.6766245e-38
253.79167 770.375 190.20834 1.8972812e-38
260.5 770 190 1.8971371e-38
226.46667 857.31671 192.38335 1.3448287e-38
234.60741 855.8222 194.7037 1.3172423e-38
244.13971 856.25739 194.70589 1.3264972e-38
250.81819 858.40912 192 1.2896904e-38
217.8 867.17145 191.42857 1.2804711e-38
223.86185 863.99341 195.11185 1.3264613e-38
233.3158 861.10529 198.60527 1.4368088e-38
246.55771 862.26929 198.38463 1.4277324e-38
254.35295 864.6059 194.73529 1.3265325e-38
261.07693 867.88464 191.69232 1.3356436e-38
215.35948 874.96082 193.84967 1.3172773e-38
221.19444 872.13892 197.97223 1.1972803e-38
256.86047 871.79071 198.2093 1.3910334e-38
263.26086 875.06525 193.92754 1.390817e-38
208.4359 886.33337 191.48718 1.3354285e-38
212.63493 883.75403 195.68256 1.3632311e-38
266.44882 883.77954 195.47244 1.3815256e-38
270.45456 886.63641 191.48485 1.3538669e-38
206.9292 894.7876 193.38937 1.4368078e-38
210.98181 894.10907 197.94545 1.5014169e-38
268.25714 892.42859 197.97144 1.4091484e-38
271.49091 894.96362 193.90909 1.3814538e-38
206.40311 904.67444 193.96899 1.5382949e-38
210.58334 903.04169 198.5 1.5107085e-38
272.73132 904.52234 194.72388 1.5104556e-38
204.09656 914.33795 194.6069 1.3541916e-38
273.40579 914.4928 194.56522 1.54737e-38
201.92126 924.48029 194.76378 1.4462429e-38
274.51407 924.75348 194.33803 1.2343014e-38
202.71429 934.66168 194.56392 1.4002175e-38
276.16913 934.45587 194.625 9.4882017e-39
280 936.5 190 7.5538984e-39
204.29231 944.6308 194.42308 1.400182e-38
275.68311 944.46478 194.54929 1.0594193e-38
207.0531 953.61945 193.58408 1.3356454e-38
211.30612 956.91833 196.81633 1.3448651e-38
267.67648 957.44116 197.38235 1.2342306e-38
273.02942 954.16174 193.80147 1.1422508e-38
208.8 961.20001 190.40001 1.1606543e-38
213.56097 964.95117 194.93292 9.7647942e-39
220.40001 968.60004 198.8 7.7386568e-39
265.64624 964.85712 194.78911 9.1190619e-39
270.57144 962.2381 190.61905 9.8555493e-39
217.19232 971.32697 192.48077 8.1070791e-39
224.42676 974.80896 194.54778 8.5691377e-39
233.37079 977.76404 196.33708 1.0595268e-38
243 978.82355 198.70589 9.4892849e-39
255.74588 976.10651 195.63113 8.6598872e-39
262.13043 972.63043 193.02174 9.304172e-39
229 980 190 9.3048951e-39
235.54411 981.10297 192.01471 1.133211e-38
244.47202 982.23206 193.98401 1.0133931e-38
252.20895 981.56714 192.61194 9.7647914e-39
227.81819 98.36364 208.72728 1.0875836e-38
234.25 98.200005 208.325 1.013827e-38
241.00002 98.714287 208.85715 9.1237562e-39
226.45631 105.11651 206.2233 1.032266e-38
234.46667 104.38667 203.68001 9.7687627e-39
244.36195 104.90797 204.76073 8.478384e-39
252.96204 107.37975 206.50633 7.8333761e-39
223.42657 114.21678 204.10489 9.768034e-39
230.33334 110.33334 200 9.952791e-39
247.625 110.125 200.25 8.5705782e-39
255.84337 111.18072 202.91565 8.2025188e-39
264.45071 114.5 204.64789 8.110326e-39
272.3143 118.27143 204.7 7.741905e-39
223.19118 124.60294 204.65442 1.232964e-38
277.21429 120.35715 204.50002 7.5578738e-39
284.45834 122.60834 204.50835 8.2947186e-39
294.52844 125.90244 204.51219 9.4007032e-39
301.77194 128.33333 204.50877 9.4932604e-39
226.94176 133.26213 204.49515 1.0315447e-38
230.65001 138 204.95 5.7136417e-39
306.34073 134.22963 204.47408 1.0130677e-38
234.96001 144.36667 204.56667 4.8071754e-39
308.32294 143.5625 203.97917 1.1041805e-38
310.1842 147.1579 205.26315 1.0683499e-38
238.4902 151.68628 205.05884 7.1044879e-39
242 156.20834 203.95834 1.1141972e-38
308.26315 154.89474 204.86842 7.1884033e-39
310.11539 151.26924 204.34616 8.4762442e-39
245.02649 164.50331 204.54967 1.1501765e-38
250 168.25 200.25 1.1406696e-38
308.099 164.27722 205.53465 3.6039533e-39
310 165.34286 202.74286 3.4199193e-39
246.52942 174.34454 205.59665 1.094322e-38
250.41667 175.08333 200.80556 1.0941777e-38
308.07956 174.73865 205.72728 4.5165307e-39
310 173.92682 202.80487 4.3299744e-39
247.81966 184.03278 207.32785 6.5354669e-39
251.8022 184.8022 202.46155 6.0755733e-39
307.98462 184.49231 205.14615 8.8291991e-39
310 181 202.16667 8.555482e-39
248.75 190.25 208.75 4.9829038e-39
253.24088 194.25548 204.43796 4.1513523e-39
307.40405 193.94949 206.29292 1.250478e-38
310.05002 195.65001 201.75 1.2232845e-38
254.62712 204.30508 204.62712 4.3382687e-39
307.16803 204.88802 205.26401 1.2054947e-38
310.05884 201.11765 201.82353 1.3334867e-38
253.59201 214.41602 204.59201 8.3721866e-39
306.63028 214.60506 204.57985 9.6726364e-39
253.54623 224.59665 204.68909 7.5557495e-39
304.72934 224.53384 204.80452 8.4705059e-39
252.3983 234.56779 204.49153 8.2954529e-39
299 239 209 9.3063944e-39
303.04547 234.5 204.7197 1.1407095e-38
248.26315 246.55263 207.5 9.8642149e-39
250.94897 243.78571 203.60204 1.0510309e-38
298.72729 245.9091 208.45454 7.0216782e-39
301.58475 244.08475 204.05933 7.3890188e-39
247.0661 254.88429 205.18181 9.9571322e-39
250.09091 252.31819 201.09091 9.9553274e-39
298.06595 255.37363 206.09891 1.0510321e-38
300.38297 252.76595 202.21275 1.1980763e-38
245.18881 264.4126 204.50349 9.9574952e-39
296.85184 264.48889 204.89629 1.4289972e-38
242.96454 274.41135 204.539 9.6765839e-39
295.08954 274.50745 204.79105 1.3554212e-38
238.90477 286.04764 208.2381 8.4812805e-39
241.1982 283.94595 203.84685 9.3124873e-39
288.66669 288.66669 209 7.662726e-39
292.85815 284.45389 204.92198 1.0516451e-38
238.29578 295.05634 206.59155 1.0584128e-38
240.36363 293.70908 202.07272 1.0951117e-38
287.51062 295.23404 208.44681 1.087011e-38
291 294.13208 203.6132 9.7770962e-39
237.84956 304.7699 205.00885 1.1596119e-38
240.00002 302.15387 200.61539 1.0845277e-38
286.93271 305.16348 206.72116 1.3422078e-38
290 303.9516 203.06451 1.3438257e-38
237.1017 314.35593 204.34746 1.3543726e-38
286.18564 314.53296 205.46707 1.6120872e-38
236.40495 324.50412 204.4628 1.4006142e-38
285.07333 324.30002 205.10001 1.667656e-38
235.36584 334.52844 204.52032 1.1970294e-38
279 337.5 209 1.6491444e-38
283.47058 334.45752 204.70589 1.6860588e-38
233.81514 344.58826 204.4706 1.0938906e-38
279 344.5 209 1.6584003e-38
282.59503 344.2562 204.37189 1.6768754e-38
229 359 208 1.3637724e-38
231.44801 354.40002 204.384 1.1511479e-38
278.73077 355.4231 208.50002 1.4067433e-38
282.00879 354.33334 203.8421 1.5931805e-38
226.04254 365.19147 204.68794 1.1980012e-38
230.0625 360.625 202.3125 1.2071483e-38
278.2258 365.2258 207.09677 1.3597483e-38
280.90668 364 202.48001 1.387371e-38
216.95537 375.77679 204.53572 1.2624292e-38
220.85106 371.04254 203.68085 1.1243167e-38
277.65115 374.66278 206.65117 1.5566977e-38
280.07999 374.44 201.7 1.4629936e-38
212.97794 384.65442 204.52942 1.0769186e-38
277.08002 384.64001 204.64001 1.6584004e-38
280.15387 381.69232 200.46155 1.6032278e-38
197.70731 398.36584 205.7317 5.7136011e-39
204.49315 394.89041 204.46576 6.0798529e-39
210.4516 390.64514 204.41934 8.0065668e-39
275.94916 394.60168 204.29662 1.6491081e-38
188.13846 407.12308 204.58461 5.1734412e-39
192.99998 402.16519 204.1739 5.4395436e-39
274.92801 404.44003 204.15201 1.5460328e-38
178.13043 418.15219 204.30435 5.6300795e-39
184.41957 413.69229 204.83217 4.0649258e-39
275.20547 414.72601 203.65068 1.3525322e-38
280.95651 415.65219 200 1.1700164e-38
176.52942 424.58087 204.41176 1.1159659e-38
180 429 208.5 1.1802858e-38
275.16995 424.53595 203.5817 1.1054448e-38
281.59573 425.29785 200.31914 1.0965139e-38
178.06863 435.03925 204.13727 9.4086584e-39
180 431.5 207.5 1.1802134e-38
275.13635 434.35065 203.90909 1.0319057e-38
282 434.44644 200.53572 1.2070436e-38
174.2206 444.38235 204.41176 7.6583834e-39
275.14789 444.61267 204.24648 8.4780617e-39
281.79309 444.65518 200.91379 1.0147679e-38
168.40321 456.77417 203.64516 9.2239056e-39
170.70833 452.52777 205.41667 8.9469586e-39
274.00592 454.39053 204.35503 9.0406116e-39
281.73334 454.21671 201.05 9.8718198e-39
166.14062 464.42188 204.51562 9.8689149e-39
274.51019 464.32651 204.37415 8.1197441e-39
281.52084 464.20834 201.16667 1.2634425e-38
164.50806 474.61288 204.41934 8.9484075e-39
274.43182 474.38638 204.83334 8.5810768e-39
281.33899 474.44067 201.30508 1.0977802e-38
163.64885 484.52673 204.45038 1.0698317e-38
274.71811 484.22147 205.40939 8.5810768e-39
281.45453 484.98181 201.49091 1.1530611e-38
163.30882 494.61029 204.7206 1.1434799e-38
275.87878 494.38385 206.53535 6.73826e-39
281.34723 494.33334 202.29167 9.1360624e-39
159 507.83334 200.33334 9.8685548e-39
162.57932 504.37241 204.68965 1.1158572e-38
276.87839 504.21622 206.83784 9.8700037e-39
281.48648 504.82434 202.55406 1.3370908e-38
158.85185 513.44446 200.66667 8.4881609e-39
162.86613 514.77167 205.29921 1.0883084e-38
277.64102 514.4231 207.07692 8.7651149e-39
281.97559 514.57318 202.43901 1.0976723e-38
159 520 200 1.3920465e-38
164.94376 524.36877 204.28125 1.0239151e-38
170.25 528.375 208.5 1.6134246e-38
277.46835 524.70886 207.06329 1.217381e-38
281.85715 524.71429 201.88312 1.4016278e-38
159 539 200 4.7048722e-39
165.10417 534.44446 203.07639 1.0879454e-38
172.0145 535.3623 207.9855 1.6224634e-38
196.65218 538.43481 208.39131 6.7519521e-39
203.55263 537.97369 208.39474 8.312424e-39
276.91251 534.51251 207.53751 8.858035e-39
281.46429 534.33331 202.29762 1.0424279e-38
158.75 541 200 4.7981538e-39
165.23596 542.43823 202.05618 9.1288303e-39
174.5641 544.21155 204.30769 1.060902e-38
184.51492 544.75372 205.98508 1.0062338e-38
194.30402 544.112 205.45601 8.2231123e-39
204.60294 544.38971 206.125 8.5886508e-39
212.14545 545.7818 208.38181 1.483414e-38
277.01266 544.89874 207.46835 1.0608659e-38
280.82193 544.26025 202.09589 1.217562e-38
176.06976 554.08142 201.03488 8.5886466e-39
184.46341 554.70728 202.72357 1.0701939e-38
194.43591 554.58124 203.15385 1.189795e-38
204.71667 554.42505 204.20001 9.2340188e-39
213.76416 554.70758 207.6132 1.2081977e-38
277.35513 554.50464 206.50467 9.4130108e-39
280.34885 554.16278 201.11627 1.1991595e-38
177.8 560.20001 200 1.0316575e-38
185.01906 564.30481 200.71429 1.3000324e-38
194.55173 564.59485 202.57759 1.1254744e-38
204.53658 564.43085 204.72357 7.9403947e-39
213.12633 564.1579 207.76843 8.1237055e-39
277.34579 564.40186 205.31775 9.413015e-39
280.85294 565.17645 200.29411 9.5048393e-39
185.3063 574.48651 201.20721 1.2452565e-38
194.60684 574.53851 203.71796 1.3372712e-38
204.53601 574.49603 206.42401 1.04221e-38
211.58139 573.32556 208.65117 7.3004357e-39
276.94595 574.48651 205.36937 1.1071802e-38
281.67859 574.28577 200.46429 1.1255107e-38
185.67369 584.71582 201.23158 1.0329903e-38
194.60001 584.5 204.16667 1.2912097e-38
203.9292 584.2478 207.56638 1.29978e-38
210 580.5 209 7.3901048e-39
276.31747 584.63495 205.19843 1.0425349e-38
281.20001 584.10004 200.3 1.1715723e-38
178.625 594.5 200 6.6312891e-39
184.4958 594.4118 201.46219 8.4838224e-39
194.52032 594.54468 204.83739 1.1991585e-38
202.44737 594.0658 208.11842 1.6040245e-38
275.28571 594.75323 204.8961 7.1091991e-39
280.5 594.5 200 6.6449755e-39
184.81198 604.33337 201.22223 6.6410057e-39
194.31404 604.65289 204.93387 1.125583e-38
201.5 604.05554 208.46297 1.3095405e-38
275.91 602.40997 206.2 6.6438769e-39
284.48026 604.88818 204.6579 8.6638655e-39
294.01788 606.33038 203.16965 1.0871502e-38
303.66666 607.5 201.11111 1.2896558e-38
310.80002 608.60004 200 1.3817072e-38
185.78889 614.13336 200.74445 5.0754792e-39
194.69344 614.67883 204.78102 9.9632825e-39
200.6087 613.08698 208.69566 8.6747101e-39
236.09091 618.45459 208.81819 1.3638831e-38
241.44444 615.55554 209 1.3541596e-38
276.26828 616.34143 208.95122 9.5789904e-39
285.19565 615.41302 208.31522 1.4640007e-38
294.48175 614.48907 205.9489 1.4825113e-38
304.41986 614.48853 201.96184 1.4274814e-38
311.17142 613.88574 200.05714 1.3814915e-38
187.65218 623.8913 200.26088 5.7172235e-39
194 624.59998 205.06897 1.2260945e-38
228.45456 624.90912 208.86365 1.4194884e-38
234.43941 624.46216 207.58334 1.2807267e-38
240.64287 624.92859 208.85715 1.2894416e-38
268.22223 627.88892 209 9.3942334e-39
275.4086 625.60217 207.80646 1.2523828e-38
284.46875 624.38281 205.66406 1.3628012e-38
294.56061 624.43939 203.45454 1.2155402e-38
304.73203 625.22876 202.28105 9.8551948e-39
313.58252 627.92236 202.68932 6.450813e-39
323 629 201.67647 4.9814577e-39
331 629 200 3.5070521e-39
187.76811 635.42029 201.6087 5.4456883e-39
191.76344 633.60217 206.1828 9.7720235e-39
205 639 209 7.4869864e-39
229 630 209 9.1140368e-39
235.10257 631.05127 208.64102 6.6453175e-39
240.40001 630.79999 209 8.9393818e-39
268.66669 631.16669 209 1.3172427e-38
274.90698 632.88373 207.7907 1.0960822e-38
284.46341 632.43903 206.86584 8.1074547e-39
294.4342 631.21051 206.80263 6.6366518e-39
303.88 630.51996 207.78 7.3785525e-39
315.87305 633.17462 208.44446 9.1353295e-39
324.73077 633.75824 206.64836 9.0427794e-39
334.43115 633.68866 204.67665 7.2896233e-39
344.19354 635.26611 203.04839 5.6351452e-39
353.80325 637.34424 201.52458 7.3864922e-39
360.60001 638.79999 200.2 6.5570973e-39
186.08276 644.68964 204.39999 6.8300674e-39
194.53847 644.96155 208.76924 1.1242117e-38
202.875 644.66669 209 7.7549202e-39
287.5 649 209 9.4914667e-39
294.47058 648.58826 209 1.0692534e-38
304.71429 648.42859 209 9.1346065e-39
315.30322 645.22577 205.69032 1.1446715e-38
323.82828 641.90912 202.54546 1.3012239e-38
334.90805 641.78162 202.71265 1.1533875e-38
344.53687 642.88422 202.35791 8.3999589e-39
354.57303 642.82025 201.83147 1.024674e-38
364 644.11365 200.7841 1.1348749e-38
370.33334 646.83337 200 1.208559e-38
183.22516 654.50995 204.74171 6.8275591e-39
195.04762 654.80957 208.5143 1.3551687e-38
200.70589 652.70587 209 1.0775018e-38
267.46875 656.65625 208.28125 1.6391274e-38
274.61053 656.06317 207.35791 1.621341e-38
284.63702 654.55554 206.51111 1.1980732e-38
294.58087 654.375 206.38235 8.4820036e-39
304.79071 654.58142 207.66667 8.7658169e-39
311.45544 653.44556 203.34653 9.0521513e-39
178.16217 666.33783 203.44595 6.4591353e-39
182.80342 663.82056 207.1795 5.7215829e-39
192.97223 663.38892 208.84723 1.1339711e-38
265.94897 664.88776 206.83673 1.3540098e-38
274.50421 664.29413 204.40337 1.501197e-38
284.49136 664.60345 203.47414 1.3627968e-38
294.90323 664.58063 205.27419 1.2527782e-38
305.47754 664.40448 205.51123 9.6758916e-39
310 660 202 7.1174836e-39
175.0368 674.73621 205.02454 9.2260804e-39
184.13187 674.16486 209 7.6605624e-39
190.28572 671.57147 209.00002 6.5458981e-39
259 678.5 209 1.2531397e-38
264.75409 674.64752 206.78688 1.0774978e-38
274.32172 674.58258 204.3826 1.3811621e-38
284.55652 674.61737 204.49564 1.4538397e-38
294.40909 674.56061 206.61365 1.3071584e-38
303.83447 674.40692 204.74483 1.1776933e-38
168.34042 687 202.53191 1.1989056e-38
173.35257 684.16669 206.84616 1.1807194e-38
181.71429 682.35718 209.00002 1.0518619e-38
259 684.5 209 1.1889999e-38
264.33859 684.31494 206.80315 9.9524421e-39
274.55002 684.57501 206.25835 1.1600754e-38
284.49191 684.50806 206.74193 1.3705408e-38
294.71323 684.50739 208.05882 1.4077077e-38
301.27835 684 203.35051 1.4266187e-38
166.22656 694.78125 203.99219 1.2358921e-38
172.54929 693.76056 208.42253 1.2544756e-38
258.625 695.25 209 1.0318352e-38
264.5965 694.64038 207.9035 8.2021685e-39
274.36038 694.24329 208.50452 1.0315086e-38
283.72043 693.77417 208.5914 1.2512277e-38
296.64429 694.32214 205.59061 1.1605474e-38
300 690.66669 201.83334 9.7666285e-39
159 708.66669 200.33334 1.1529519e-38
163.71597 704.40826 205.05325 1.1899385e-38
170.2 701.20001 209 1.2267446e-38
258 703.79999 209 9.6754867e-39
263.64285 701.33337 208.88095 8.3861954e-39
275.5 700.41669 209 9.1241304e-39
281.28574 700.42859 209.00002 1.0136107e-38
295.55173 704.69653 204.86896 1.1610883e-38
157.84058 715.04352 202.21739 1.1622798e-38
161.77107 713.78308 206.80722 1.1807913e-38
237.57144 717.10718 208.50002 1.1606183e-38
243.31429 716.28571 208.58571 9.7676879e-39
288.38889 716.83331 208.66667 1.575642e-38
293.82581 714.47742 204.32257 1.3546256e-38
156.97701 724.43677 202.41379 1.2822066e-38
161.49231 724.7077 207.44615 1.199411e-38
235.51962 725 206.96078 1.0411975e-38
244.48001 724.43201 206.97601 1.2809415e-38
251.16669 726.3667 208.80002 1.4651517e-38
278.5 729 209 1.3634476e-38
286.31183 725.35486 207.66667 1.6123391e-38
293.28925 724.14044 202.76031 1.4557152e-38
157.69231 734.0769 201.60001 1.1719328e-38
163.13559 735.11865 206.44067 1.3715566e-38
216.97827 736.56525 208.3261 1.0138641e-38
224.48114 735.30188 208.19812 1.1519049e-38
234.14966 734.39453 204.82993 1.2347355e-38
244.50377 734.5639 204.90227 1.4556791e-38
253.97272 735.07269 207.81818 1.5295803e-38
264.88 736.61334 208.12001 1.5668931e-38
275.08594 735.28125 207.07812 1.5300152e-38
284.1962 734.20258 203.9557 1.5759686e-38
291.30002 731.66669 201.20001 1.5208673e-38
158.77779 741.88892 200.22223 1.2732398e-38
164.81647 744.1709 203.24684 1.0589212e-38
173.95834 745.70837 206.55835 1.5641221e-38
184.05357 747.53577 208.00002 1.5923903e-38
194.35483 748 208.64516 1.4921645e-38
205.19644 747.19647 208.33929 1.02312e-38
214.67741 744.8548 206.8629 1.1890362e-38
224.70895 744.54474 205.19403 1.2348084e-38
233.89516 743.77417 201.60483 1.4096173e-38
244.66412 744.42749 201.96947 1.4191989e-38
254.34146 744.47968 204.21138 1.5022843e-38
264.5643 744.49286 203.88571 1.2629005e-38
273.94495 743.04584 202.31192 1.2814479e-38
281 740.69232 200.53847 1.2807607e-38
167.82353 750.88239 200.4706 1.1680815e-38
175.05882 753.05884 201.79413 1.4533441e-38
184.69444 754.24304 203.20139 1.437027e-38
194.37671 754.46576 204.5137 1.1149931e-38
204.48904 754.72992 204.59854 1.3179298e-38
214.35606 754.5152 203.01515 1.3269321e-38
223.93636 753.52722 201.49091 1.4097626e-38
230.2 750.60004 200.2 1.2805797e-38
246.56522 750.86957 200.17392 1.5203989e-38
254.67796 751.42371 200.72882 1.3091063e-38
263.32257 750.87097 200.41934 1.4379634e-38
187.33334 760.16669 200 1.0423182e-38
195.25581 761.13953 200.58139 1.4100894e-38
