# .PCD v0.7 - Point Cloud Data file format
VERSION 0.7
FIELDS x y z rgb
SIZE 4 4 4 4
TYPE F F F F
COUNT 1 1 1 1
WIDTH 1153
HEIGHT 1
VIEWPOINT 0 0 0 1 0 0 0
POINTS 1153
DATA ascii
343.20715 575.17145 193.29286 8.7556954e-39
352.40424 577.48932 192.06383 9.4932632e-39
128.37839 582.78381 191.45946 4.8863712e-39
131.46788 585.33942 195.39449 4.8863726e-39
338.30002 584.5 198.175 9.2159518e-39
344.54236 584.27118 195.78813 8.2017985e-39
354.14752 584.52454 192.7459 9.3074244e-39
135.38562 594.36603 194.03922 9.9542428e-39
141 598.36365 195.9091 1.0230468e-38
338 594.46338 198.02438 8.7553338e-39
344.58771 594.42981 196.48245 8.2014384e-39
355.04697 594.59064 193.41611 9.5836512e-39
360 596 190 1.0044268e-38
142.15555 604.39258 194.97037 1.0323385e-38
337.38962 606.14288 196.37662 9.0315606e-39
344.53125 605.95001 194.95625 9.5840127e-39
354.08844 604.86395 193.0136 1.0966586e-38
139 619 190 8.9408125e-39
141.97014 614.48505 194.75372 9.7705746e-39
306.83334 616.25928 194.41667 9.7698515e-39
314.42609 614.50433 194.26086 8.9408125e-39
324.4538 614.42859 194.21849 6.5437261e-39
333.04718 612.19812 194.23586 7.2805681e-39
127.7451 628.4118 194.35295 8.1114134e-39
134.93549 625.8548 194.01613 6.3607782e-39
141.05194 622.79224 196.35065 8.2961676e-39
308.27658 621.55316 196.12766 9.401069e-39
313.35916 626.21124 194.07042 7.5578752e-39
48.25 638.66669 191.25 1.1615212e-38
54.239132 636.13043 191.42392 9.5869064e-39
118.2353 636.64703 194.42647 9.5861819e-39
122.53535 631.68689 194.65657 8.6642256e-39
318.51852 630.55554 195.85185 8.571667e-39
322.92249 635 194.1628 9.7698515e-39
45.402596 644.94806 194.46753 1.1246428e-38
54.089745 644.99359 193.8141 6.6359203e-39
64.366905 645.65466 194.56116 8.5709454e-39
74.429688 643.6875 194.46875 8.3876387e-39
84.58268 646.07086 194.4567 7.4660425e-39
91.409096 648.68182 193.63637 6.1756639e-39
116.50806 644.48383 194.71774 7.6497107e-39
325.87122 644.42426 194.52274 1.0045714e-38
39 657.60004 190.7 1.2997063e-38
41.885498 654.02289 195.06107 1.2444251e-38
54.338234 651.64703 198 7.8333775e-39
60 650 198.5 9.5840127e-39
95.979172 651.35419 194.95834 5.162235e-39
102.16 656.01996 194.20999 4.4250329e-39
114.50658 654.9408 194.45395 8.0192177e-39
326.87396 654.49585 194.59665 1.0691806e-38
38.534481 665.01721 191.8793 1.2628279e-38
40.676056 664.0141 196.70422 1.2536085e-38
106.69566 663.83234 194.3851 5.622853e-39
110.60001 661.02222 195.22223 6.4522522e-39
328.0097 663.82526 195.31068 9.6772929e-39
330.30002 667.13336 191.83334 7.9255718e-39
38.184212 674.4342 192.57895 1.2720473e-38
40.59322 675.37286 197.23729 1.3457679e-38
328.875 671.8125 198.3125 1.0876199e-38
331.33334 674.78339 194.175 1.1152786e-38
38.799999 680.20001 190.60001 1.5577822e-38
44.207546 684.57233 194.522 1.5486348e-38
50 689 199 1.5947686e-38
331.43799 684.48755 194.52892 1.1429011e-38
47.657894 692.73688 192.57895 1.5670739e-38
51.979382 695.89691 196.10309 1.56711e-38
329 692.5 199 9.9524337e-39
331.63412 694.64227 194.42276 1.106059e-38
49 700 190 1.3458044e-38
55.560608 703.12878 193.57576 1.5301958e-38
64.156715 706.80597 194.82089 1.6684531e-38
74.442314 707.86542 195.49039 1.7052952e-38
84.696976 706.73486 194.26515 1.4287081e-38
94.516556 702.56952 194.43709 9.770576e-39
103.06364 705.58179 194.58182 8.2018041e-39
332.92801 704.52802 194.576 1.1520482e-38
66.857147 710.00006 190.14287 1.6960395e-38
74.724136 710.31036 190.62068 1.3640266e-38
80.75 710.25 190 9.5836512e-39
106.7381 714.52386 194.54762 1.1243897e-38
334.28336 714.45837 194.45834 1.096767e-38
109.00001 720.28577 195.35715 9.8598807e-39
111.32758 724.87933 194.38792 8.9397335e-39
333.65335 724.78003 194.64 7.6500737e-39
116.18182 733.18176 194.69421 9.9538798e-39
120.21875 737.59375 195.84375 1.023083e-38
337.64584 733.13544 193.29167 8.5716684e-39
340.35419 736.5 196.5625 9.4929003e-39
118.86842 745.1842 191.3421 1.2165856e-38
120.3375 744.27502 195.8625 1.1613404e-38
339 740.66669 190.66667 9.7691256e-39
341.50406 744.73981 194.75609 9.8613212e-39
118.02941 754.5 191.98529 1.2258052e-38
120.60001 754.3667 196.83334 1.2442803e-38
337.31113 755.48889 195.85556 1.1336094e-38
341.06097 752.85364 193.68292 1.0506331e-38
117.10228 764.65912 192.5341 1.2350969e-38
121.54166 764.625 197.22223 1.2626834e-38
337.65549 764.31097 194.42859 1.0507055e-38
340 769 197.5 8.0188548e-39
117.87302 773.88892 191.85715 1.3549152e-38
121.81188 775 196.37624 1.2996338e-38
339 776.21051 193.05263 9.0326466e-39
340.02631 773.69739 195.1579 9.9542428e-39
118.8 781.40002 190.3 1.4747335e-38
124.82926 784.16461 193.56097 1.5392706e-38
130.60606 787.48486 196.75758 1.5392703e-38
338.69232 782.33337 191.82051 7.7422693e-39
340.94681 785.05316 195.43616 9.5854588e-39
126.68889 791.71112 190.53334 1.5393066e-38
132.15573 795.09015 194.94261 1.4286717e-38
341.20355 794.47784 194.62831 1.0784364e-38
136.45522 803.70892 193.62686 1.2719393e-38
140.86046 806.02325 197.51163 8.5716698e-39
339 806 190 1.0046799e-38
341.39499 804.49585 194.69749 9.3085118e-39
139 815.54547 191.09091 9.2163148e-39
140.40541 814.49554 195.14415 9.2166777e-39
338.59525 815.92859 191.5 9.5847372e-39
340.96808 814 195.91489 9.3085104e-39
138.65909 823.61365 191.47728 1.0322662e-38
143.37143 825.20715 196.08571 1.3826102e-38
150 828.5 199 1.4563304e-38
336.10345 824.98621 194.27586 1.0874753e-38
340 820.625 197.875 1.0691446e-38
138.57143 835.71429 190.4762 1.0321942e-38
144.87585 834.20001 193.28276 1.1705238e-38
153.32652 835.62244 197.37755 1.3088174e-38
160.75 838.75 199 1.2165855e-38
318.75 839 190.75 1.4193075e-38
325.05927 836.48145 194.22221 1.3548067e-38
331.53622 831.62323 195.21739 1.1242815e-38
138.66667 840.66669 190.16667 1.3732456e-38
145.51852 843.60187 192.13889 1.2072574e-38
154.28368 844.9007 195.69502 1.0414135e-38
164.05511 845.31494 197.27559 9.49218e-39
171.97827 847.54352 196.78261 7.8333803e-39
309 848.5 199 8.9411754e-39
314.1875 843.83124 194.61876 1.0966591e-38
320.58334 840 196.91667 1.4561859e-38
149 850 190 1.2533191e-38
155.88235 851.91766 192.94118 1.1519396e-38
163.60464 851.46509 192.48837 9.031199e-39
174.37143 854.17145 194.44286 9.6765727e-39
305.51096 855.67883 194.70073 1.5391981e-38
310.68292 851.12195 193.14633 1.4101964e-38
176.98401 864.22406 194.11201 9.8591604e-39
180.125 867.4375 198.1875 1.1696236e-38
287.95239 868.66669 191.80952 1.1335007e-38
294.77499 864.64374 194.49376 1.1519761e-38
300.39999 860.27997 194.67999 1.3547342e-38
178.47311 875.06451 193.72043 1.2157572e-38
180.07408 872.51855 197.74074 1.2065735e-38
249 879 191.5 1.0221105e-38
254.55634 875.8028 194.8662 1.0870791e-38
264.4567 871.97638 194.19685 8.570951e-39
274.54901 873.93463 194.27451 8.4783896e-39
283.95834 873.47223 194.54861 9.9535183e-39
290.83334 870.94446 197.88889 8.7546164e-39
178.12613 884.51355 194.68469 1.2343762e-38
248.69444 884.48151 194.34259 1.0868265e-38
250 880 196.5 1.1604752e-38
178.4035 894.66669 194.67545 1.2159372e-38
248.41072 894.39288 194.62502 1.0225059e-38
250 898.5 199 8.3869128e-39
178.0661 904.83466 194.76031 9.9502771e-39
180 909 190 9.5836554e-39
248.78572 902.41077 193.26787 8.5705838e-39
250.04764 906.17468 195.6508 8.6624179e-39
176.0584 914.45984 194.47446 7.7426322e-39
180 912.33331 190.33333 8.0181359e-39
248.66176 914.11768 192.64706 7.9241298e-39
250.67163 915.37311 196.1194 8.2003552e-39
175.40001 924.6084 194.49168 8.29472e-39
248.83334 920.66669 190.33334 5.8972693e-39
254.14084 924.40137 194.26056 9.8562752e-39
156.11539 938.50006 192.73077 8.9408125e-39
161.375 939 191.4375 5.4381002e-39
173.79857 934.55396 194.47482 5.0696778e-39
255.70802 934.60583 194.29196 8.9361195e-39
260 939 190.5 1.0223256e-38
149 947.5 193.5 1.0598888e-38
152.65909 943.92615 195.49432 1.0599609e-38
165.03546 942.56732 195.04254 5.1618749e-39
171.01123 943.04498 195.33708 3.5034367e-39
258.26315 941.05261 195.5 9.4892933e-39
263.63635 945.1748 194.49651 8.015608e-39
151.07437 954.57849 194.30577 1.1429011e-38
267.60001 951.41815 193.27272 4.5172285e-39
274.64743 954.61542 194.58975 8.5720286e-39
281.58334 957.94446 197.25 7.6511555e-39
153.3421 964.49121 194.44737 1.1521207e-38
278.42105 963.36841 190.57895 9.1252024e-39
282.63461 964.54486 194.40385 9.2170392e-39
156.40495 973.87598 194.94214 1.4101964e-38
161.42552 977.36169 192.40425 1.4101964e-38
275.76297 974.65186 194.17778 1.2625748e-38
280.61111 970.27777 196.33333 1.1429011e-38
159 980 199 1.5299423e-38
164.76668 984.40668 194.53334 1.4378911e-38
268 987.27271 192.8909 9.9524337e-39
271.33664 983.1485 195.14851 9.2148686e-39
168.16667 991.70374 195.38889 1.4931725e-38
171.70407 996.15302 193.69388 1.5208313e-38
258.57144 998.57147 190.71429 1.5299421e-38
264.37976 994.36078 194.54431 1.1519758e-38
176.44211 1002.0948 194.9158 1.5761125e-38
183.31035 1006.9569 194.02586 1.5945877e-38
248.18182 1008.5909 192.27274 1.6590525e-38
254.51266 1004.7532 194.47469 1.5667844e-38
261.21213 1001.0606 196.78789 1.1427201e-38
188.10811 1010.3784 195.08109 1.6314298e-38
194.57353 1014 194.38235 1.6312853e-38
201.95589 1018.1324 194.23529 1.4745886e-38
218.40001 1018.6 190.90001 1.3087086e-38
224.74138 1017.3879 194.21552 1.7142252e-38
234.61113 1015.3254 194.45239 1.8802134e-38
243.8983 1011.822 194.66101 1.7789066e-38
250 1010 199 1.6313935e-38
206.72728 1020.5 194.75758 1.5669652e-38
214.48759 1021.2644 194.52892 1.5854766e-38
220.40001 1020.2667 196.8 1.4377468e-38
138.66667 9 200.33334 6.7281146e-39
144.95122 9 201.60974 7.1887326e-39
154.11365 9 201.75 7.9259347e-39
160.8 9 200.40001 8.7553352e-39
128.64287 18 200.85715 7.1883725e-39
134.60234 14.432749 204.66667 6.9125044e-39
143.97531 10.444445 206.23457 7.3727637e-39
155.39285 11.059524 206.70238 7.9259347e-39
164.26738 13.770054 204.56151 8.8475309e-39
171.02704 16.162163 200.83784 1.0507054e-38
335.92957 16.732393 206.88731 5.530656e-39
344.51202 16.024 205.28001 4.2402787e-39
354.25836 16.033335 205.68335 3.5034367e-39
364.34067 17.197803 206.53847 4.42467e-39
371.25 18.083334 207.91667 5.253709e-39
128.54839 22.741936 201.06451 9.4925401e-39
132.78986 25.108696 205.64493 1.1243897e-38
140 29 209 1.3548788e-38
157.72501 26.175001 208.27501 1.3271478e-38
164.23779 24.707315 204.4695 1.3271479e-38
171.03703 22.074074 200.81482 1.2626833e-38
335.46213 24.477274 205.75 8.4794728e-39
343.34259 24.342592 201 7.0968985e-39
355.44998 23.559999 200.69 5.899077e-39
364.81506 24.520548 201.81506 7.2809296e-39
372.61322 24.396227 206.68867 8.4791113e-39
136.21796 31.282051 203.4359 1.4654778e-38
144.31355 32.677967 204.61017 1.5299784e-38
154.18488 31.848742 204.15967 1.5391619e-38
161.61539 30.576923 201.42308 1.511467e-38
337.5397 33.73016 207.39684 7.8348251e-39
344.3111 34.31852 203.33333 8.0188548e-39
354.66919 34.338348 202.09023 8.571667e-39
364.25336 34.146667 205.12001 9.4010676e-39
370.57144 30.928574 208.07144 1.0322662e-38
337.91489 44.872337 208.29787 6.728839e-39
344.21094 44.335938 205.14062 7.7429896e-39
354.90076 44.61832 204.77863 9.0330081e-39
361.71429 43.380955 207.73016 1.0138994e-38
336.23596 54.86517 207.30338 6.3600565e-39
344.21774 54.540321 204.38708 7.0976216e-39
354.64886 54.687023 205.61832 8.111412e-39
360.40909 53.818184 208.86365 8.3879988e-39
328.80002 67.599998 208.7 7.37457e-39
334.7037 64.392593 206.34814 6.9128702e-39
344.3772 64.64035 203.19298 7.5582368e-39
354.80716 64.428574 205.78572 8.5716684e-39
360 64.5 209 8.9408111e-39
328.09375 75.34375 208.5 7.5589612e-39
334.25983 74.464569 206.03149 7.2816527e-39
344.44827 74.422417 203.83621 8.2958032e-39
354.76471 74.375 206.17647 8.9408125e-39
360 72.5 209 9.217398e-39
326.93939 84.71212 207.9697 8.2039719e-39
334.51285 84.52137 206.48718 8.2039705e-39
344.46085 84.530434 204.44347 8.8493413e-39
353.99219 84.398438 206.69531 9.4028738e-39
327.36365 93.568184 208.9091 7.4664055e-39
334.51517 94.515152 206.81819 7.2823744e-39
345.06451 94.403221 205.34677 8.2039705e-39
352.62668 95.440002 207.98668 7.2823744e-39
361 99 209 7.8359111e-39
328.1875 101.6875 208.875 8.0192177e-39
334.94739 103.21053 207.24211 7.6504352e-39
344.5397 104.74604 206.33334 8.1117749e-39
354.4361 104.35339 205.50377 7.9273836e-39
363.23853 104.49541 206.88072 8.2965263e-39
347.875 110.375 208.875 7.5586025e-39
354.78461 114.36923 206.77692 7.1901787e-39
361.61429 113.78571 206.97144 1.0693253e-38
347.13208 126.75472 207.35849 7.0983432e-39
354.82993 124.31292 205.65987 8.2961634e-39
360.14288 123.35715 208.17857 1.0416304e-38
336.44067 136.55933 208 8.4801973e-39
344.45184 134.55556 207 9.7709361e-39
353.91998 133.2 207.56 1.0600697e-38
360 130.5 209 1.1799241e-38
334.90909 140.40909 208.72728 9.9546057e-39
342.46667 140.20001 208.73334 1.0969481e-38
173 269 200 9.4014291e-39
169 273 200 9.678016e-39
174.35106 274.6702 200 9.3092321e-39
182.625 276.1875 200 8.3869156e-39
176.51428 282.28571 200 9.2163148e-39
180.60001 281.60001 200 8.6635011e-39
268 328.85715 208.71429 9.218484e-39
273.53848 328.84616 208.92308 9.4950681e-39
285.79999 328.75998 208.23999 8.7575044e-39
294.77274 327.74243 207.27274 8.7575044e-39
304.77274 326.77274 206.82954 9.863852e-39
310.38889 327.11111 208.22223 1.382827e-38
157.45454 338.09091 200.72728 8.1092399e-39
164.72223 337.125 201.70833 7.6486233e-39
174.57143 336.10202 201.79591 7.3716777e-39
183.12857 335.71429 200.7 6.6348315e-39
264.94852 334.91177 206.35294 7.7433539e-39
274.64328 334.19882 204.33919 9.5869064e-39
284.3143 333.19287 203.25714 9.4950709e-39
294.55737 333.82785 202.05737 8.8493385e-39
304.62222 334.35556 203.01482 1.0047883e-38
311.42252 335.21127 207.02817 1.1984356e-38
146.46155 346.86539 201.09616 8.6631396e-39
154.52055 344.43835 203.4178 8.5702209e-39
164.36719 344.11719 205.88281 8.3854681e-39
174.66165 344.42105 205.14287 7.4642321e-39
183.15463 344.85565 201.67009 6.2664134e-39
259 348.5 209 7.6515198e-39
263.96204 344.27216 204 7.2827359e-39
272.07144 341.28574 200.35715 9.218484e-39
298.33334 340.66669 200 1.0969842e-38
305.29703 343.71286 201.17821 1.078581e-38
312.41748 344.56311 205.83496 1.1246066e-38
137.8 357.75 200.60001 8.8486169e-39
144.62758 354.96552 203.17241 9.8627702e-39
154.22047 354.31497 206.61417 1.1338262e-38
164.59129 354.43475 207.83478 1.0784726e-38
174.75 354.58594 206.60938 9.0330095e-39
183.25963 354.44232 202.50963 7.3738483e-39
257.23288 356.39725 206.64383 7.3752917e-39
262.01834 353.56879 202.91742 7.1909018e-39
308.6774 354.64514 200.58064 1.078545e-38
312.74796 354.66666 205.36584 1.0877284e-38
135.88889 364.87964 202.26852 9.9538812e-39
144.24812 364.27069 206.28572 1.1890713e-38
154.46086 364.52173 208.15651 1.2720836e-38
164.65852 364.53656 208.43901 1.2259861e-38
174.47287 364.44186 205.37984 9.9553274e-39
181.74626 363.89551 201.67163 6.6366434e-39
247.48779 366.92682 207.80487 6.545531e-39
253.78882 363.81989 203.91304 7.4671272e-39
260.5 360.5 200.16667 7.5593228e-39
308.875 361.125 200.375 9.7712948e-39
314.78882 364.37268 204.09317 1.0416667e-38
320.80954 367.28574 208.2381 1.0508501e-38
129 379 200 1.2536445e-38
134.80469 374.5625 202.69531 1.2720473e-38
144.45454 374.45453 205.91818 1.3088898e-38
154.44737 374.47369 207.67545 1.3181816e-38
164.41667 374.37503 207.07501 1.1891438e-38
175.06165 374.63699 204.28082 8.4805574e-39
180.23529 372.23529 200.52942 6.6370035e-39
245.11334 374.84668 204.95334 7.466767e-39
251.40625 371.65625 201.34375 7.3749287e-39
317.46915 373.76544 202.16049 1.0139356e-38
322.26529 374.97958 206.86734 8.9411754e-39
128.76924 384.61539 200 1.281303e-38
134.65625 384.33594 202.32031 1.3181454e-38
144.39684 384.66669 205.57144 1.308926e-38
154.26271 384.5 208.11017 1.244389e-38
164.66129 384.54837 207.87903 1.1707046e-38
174.11189 384.41959 202.74825 7.8351866e-39
186.4762 388.04764 200.38095 8.57203e-39
193.97437 386.15384 200.79488 8.2961662e-39
200.5 389 200 8.1121364e-39
236.14287 387.14288 208.12502 5.7157703e-39
242.56392 384.1955 204.44362 7.4674901e-39
318.69565 382.95654 200.56522 9.1248408e-39
323.72668 384.60001 205.20001 8.8493385e-39
128.88235 393.70587 200.29411 1.2352052e-38
134.38931 394.70993 202.95419 1.1706684e-38
144.38843 394.38016 206.68594 1.1706321e-38
154.39999 394.43475 208.79129 1.2443888e-38
164.78992 394.40338 206.91597 1.0969481e-38
174.58064 394.4274 202.50806 8.5723915e-39
184.71223 394.61151 202.02159 8.8482567e-39
194.48819 394.37009 202.91339 7.7426294e-39
202.80487 395.51218 201.28049 6.5451695e-39
227.49397 395.89154 206.32529 7.9277452e-39
234.16107 393.74496 203.51678 6.545531e-39
241.3651 393.00003 202.46033 5.6235761e-39
324.89856 394.36234 204.1087 1.0047523e-38
128.06061 406.27274 200.75758 1.1153509e-38
134.3 404.64999 204.12857 1.1245345e-38
144.41525 404.66949 207.41525 1.1613767e-38
154.60345 404.60345 208.56897 1.198291e-38
164.57812 404.5 206.28906 1.0969121e-38
174.632 404.56003 203.36801 9.9553274e-39
184.27206 404.49265 205.26471 9.1259268e-39
194.49208 404.64288 203.52382 8.3876387e-39
204.52065 404.66113 201.47932 7.1901787e-39
210.3 406.30002 200 7.744077e-39
224.11334 404.28668 204.32668 6.6373665e-39
325.61029 404.40442 204.28676 1.0969116e-38
128.25581 413.95349 200.97675 1.1614127e-38
134.3007 414.62238 206.11888 1.1614127e-38
143.02858 412 208.88571 9.6776545e-39
155.49475 414.01056 208.26317 1.0507778e-38
164.52066 414.43799 205.79338 1.0877285e-38
174.45714 414.47858 206.60715 9.9556875e-39
184.41321 414.5289 206.40495 8.7567828e-39
194.68594 414.4628 204.94214 7.7429924e-39
203.30392 414.65689 201.20589 7.6511555e-39
211.5 417.875 201.125 7.7433525e-39
221.92126 414.40158 204.55118 6.7295607e-39
326.8421 414.36844 204.33835 1.0784726e-38
330 418.25 208.75 1.0599611e-38
128.62962 424.55557 200.37038 1.2352417e-38
134.69466 424.70993 205.64885 1.2352054e-38
141.36584 425.26828 208.82925 1.2352052e-38
156.8983 424.2034 208.69492 1.0506693e-38
164.26956 423.92172 207.71303 1.0046799e-38
174.82401 424.42401 208.11201 8.6638655e-39
184.39062 424.25 207.27344 9.5861819e-39
194.56337 424.54224 206.73239 7.0057875e-39
204.43835 424.76028 203.78082 8.6656703e-39
215.1573 425.35956 204.03932 7.4671286e-39
220.94644 421.92859 203.07144 7.3752945e-39
327.88348 424.66992 203.8835 9.4010676e-39
330.04349 423.56522 208.21739 1.1244983e-38
128.90001 434 200 1.2813033e-38
134.25 434.37164 203.62163 1.3274011e-38
143.30209 434.66669 207.8125 1.1890714e-38
155.66667 431.33334 209.00002 9.9542414e-39
164.2 433.39999 209 9.0326466e-39
174.60378 434.39624 208.15094 8.9408125e-39
181.70001 431.60004 208.13335 1.032411e-38
195.16667 430.16669 209 8.8497001e-39
204.70708 433.30304 207.82828 9.0340941e-39
212.28572 432.10715 207.10715 6.5455324e-39
328.26669 434.25717 204.16191 1.0415943e-38
330 437.45456 208.27274 8.940088e-39
129 440 200 1.3366206e-38
134.66423 444.40875 202.52554 1.1982911e-38
143.72807 444.4649 207.1579 1.2536445e-38
158.5 449 209 1.0323024e-38
165.83334 443.33334 209 9.4014319e-39
171.16667 440.33334 209 9.1255667e-39
328.66177 444.07352 202.67647 1.0138272e-38
330.14584 445.77084 206.75 1.1153508e-38
134.9077 454.37692 203.18462 1.2352055e-38
143.58121 454.53848 207.90599 1.2259859e-38
153.81633 455.18365 209 1.2259857e-38
160 450.5 209 1.023083e-38
331.92001 454.33603 204.39201 1.1429734e-38
134.9756 464.66666 203.87804 1.2075105e-38
144.36752 464.47012 208.1795 1.2536083e-38
151.07144 463.60718 209.00002 1.0784005e-38
331.91742 464.57797 204.50458 1.1982547e-38
134.28966 474.46207 203.26207 1.1798158e-38
144.40495 474.55371 207.66115 1.0230468e-38
150.28572 471.57144 209.00002 9.308509e-39
328.43939 476.60608 203.69698 1.1152064e-38
330.54837 472.04837 205.45161 1.2443888e-38
129 485.5 200 1.2167302e-38
134.42747 484.45801 202.77863 1.1429374e-38
143.17999 484.31998 207.04999 1.0415221e-38
326.23254 484.58914 204.37209 1.2812309e-38
129 494.75 200 1.1983271e-38
135.07051 494.77563 203.5641 1.1522293e-38
140.93333 492.03336 207.73334 1.0324108e-38
322.62991 494.55118 204.49606 1.2997423e-38
128.64287 507.07144 200.35715 1.1798878e-38
133.20395 504.25659 204.66447 1.0599974e-38
318.84 505.03998 202.28 1.1890713e-38
320.24326 503.7973 206.16217 1.2352052e-38
127.81429 514.91431 201.72858 1.1153147e-38
133.72992 514.59851 206.93431 1.2720475e-38
140 516.5 209 1.3366206e-38
319 510 202 1.1243897e-38
320.53043 514.61737 204.49564 1.142865e-38
127.63493 523.74603 201.26985 1.2259496e-38
134.27737 524.71533 205.72263 1.2536085e-38
142.01888 526.01886 208.33963 1.106095e-38
321.27731 524.56305 204.26892 1.0876202e-38
128.83334 531 200.16667 1.2720838e-38
134.64706 534.5686 203.63399 1.1890714e-38
141.37999 533.23999 207.64 9.4010704e-39
318.62885 534.17523 204.77319 8.3872772e-39
320.62747 536.17651 203.84314 7.7422679e-39
135.74809 544.229 203.14503 1.1983271e-38
141.46297 546.14813 207.51852 1.179888e-38
325.83673 543.53058 204.95238 9.1241177e-39
332 547.95654 201.95653 9.4010676e-39
137.83929 554.625 201.32144 7.3749315e-39
142.50894 554.4375 206.30357 8.2043321e-39
329 550 208.5 7.1883725e-39
334.91876 554.15002 204.78125 9.6769314e-39
136.61111 564.69446 203.01852 4.8867327e-39
140.96227 563.43396 207.58492 4.8867327e-39
337.54764 564.46826 204.65874 9.9535183e-39
340 565.5 200 9.8609597e-39
136.17212 574.66388 203.59015 4.8863726e-39
140.64865 575.35138 208.18919 4.9789284e-39
336.09775 574.3985 204.24812 9.9535169e-39
136.12001 584.41602 203.35201 4.8867313e-39
140.62857 584.11432 208.17143 5.0707638e-39
335.40161 584.54095 204.26228 9.67693e-39
138.22 592.47998 202.17999 9.6780174e-39
142.37601 596.05603 205.48801 9.7698515e-39
334.92801 594.62402 204.408 9.3081489e-39
146.92682 603.7561 203.73982 9.4932646e-39
151.23077 607.02563 207.30769 9.1248422e-39
333.56061 604.49243 204.47728 9.3081475e-39
146.38889 614.92224 201.75555 8.664227e-39
151.89108 614.45544 206.08911 7.9270221e-39
306.63043 616.33698 204.47827 1.0414861e-38
314.37381 614.65417 204.51401 8.4794728e-39
324.81982 614.65765 204.67567 8.7549737e-39
331.65277 611.98615 203.73611 9.9527952e-39
127.44445 628.6889 204.22223 8.5723915e-39
134.43201 625.87201 204.688 6.3604167e-39
144.44872 622.6795 204.26282 5.9916355e-39
150.36365 620.54547 204.63637 5.8079659e-39
307.04544 623.58179 204.60909 8.940451e-39
312.33801 628.04224 203.73239 6.9125072e-39
119 637.83337 201.16667 1.0046437e-38
122 633.58276 204.6331 9.9553246e-39
317.11765 632.67651 205.44118 1.0231193e-38
321.05002 636.70001 202.91667 1.0968395e-38
47 649 200 9.4950723e-39
66.345451 648.16364 202.23636 9.0322837e-39
74.629028 646.92743 204.37903 9.4936233e-39
83.926605 647.71558 203.86238 8.5720286e-39
90 649 201 7.1894543e-39
118.73077 645.07697 204.18269 7.7422665e-39
120.05882 640.82355 206.88235 8.6642242e-39
319 641 209 1.0782194e-38
321.93024 644.58917 204.36433 1.0690723e-38
46.328358 655.19403 200.64178 1.1061675e-38
55.456142 656.20178 202.20175 8.9386419e-39
63.224003 652.82404 205.87201 1.0321215e-38
71.111115 650.22223 208.44444 1.0691083e-38
87.857147 650.75 207.03572 7.465681e-39
94.531036 652.95862 204.3862 6.7288362e-39
101.89744 657.3205 204.25641 5.4384604e-39
116.49296 655.23236 204.5845 8.111412e-39
323.26718 654.49622 204.51909 1.0876199e-38
45.131145 664.74585 202.58195 1.1891075e-38
54.066177 663.97797 205.66911 9.7673193e-39
106.7295 663.04913 204.04097 5.7150472e-39
111.24138 660.9483 203.74138 5.9916341e-39
324.96213 664.53033 204.51515 1.0784003e-38
44.675861 674.63446 203.86208 1.2720475e-38
52.772728 674.28412 207.625 9.4907311e-39
327 674.4375 204.58594 1.1244621e-38
330 678 200 1.152157e-38
47.404495 683.13483 203.14607 1.5117925e-38
52 685.74487 206.89795 1.4472194e-38
327.3223 684.47931 204.57851 1.1520485e-38
330 684.00006 200.00002 1.1336454e-38
55.546097 693.67377 203.95744 1.6224273e-38
62.705883 696.94116 207.42647 1.6684892e-38
96.14286 699.00006 202.78572 8.9364825e-39
327.49997 694.1803 204.80327 1.0598888e-38
330 697.60004 200.7 1.0783279e-38
58.444447 700.33331 200.88889 1.6869284e-38
65.179489 702.35901 203.47864 1.714551e-38
74.446045 703.97125 204.66907 1.6684532e-38
84.666672 704.96832 204.53969 1.4100528e-38
94.598587 701.66901 204.35915 1.0688198e-38
104.09219 705.09924 205.04964 9.5840141e-39
328.67346 703.24487 207.12245 1.0506693e-38
330.63159 705.14471 202.76315 1.1336091e-38
106.91935 714.41931 204.78226 1.0782559e-38
329 712.81818 208.72728 1.1890351e-38
331.27826 714.49561 204.26956 1.0875839e-38
108.90322 720.83868 204.09677 1.0321216e-38
111.11651 725.69904 204.6602 1.0875113e-38
334.77069 724.57324 204.63057 8.0184933e-39
115.54167 732.70001 204.50002 8.755701e-39
121.03175 737.0318 204.95239 4.8867341e-39
338.85715 730.4762 204.14287 1.0137547e-38
341.49557 735.1062 204.58408 9.67693e-39
121.97345 744.5575 204.20354 7.09726e-39
335.07086 745.74805 206.04724 1.0506696e-38
342.0354 744.04425 203.85841 9.7691284e-39
121.91965 754.50897 204.45537 7.0054287e-39
334.58014 754.23663 204.43512 1.0968033e-38
340 750 200 1.1059507e-38
119 765.5 209 9.6772929e-39
121.92248 764.59692 204.55038 8.3880002e-39
337.09344 763.66351 204.65421 9.3092335e-39
340.17859 768.35718 205.07144 9.2170392e-39
123.69403 774.29846 204.46268 8.0188604e-39
341.83078 774.51538 204.53078 9.4929017e-39
126.76001 784.20801 204.66402 8.0192177e-39
130.25 787.8125 201.0625 1.2996701e-38
343.20001 784.56671 204.55835 9.5847358e-39
128 791.71796 206.76923 7.0968985e-39
134.10191 795.14648 204.17198 1.0139358e-38
142 797.12329 205.12329 9.9549672e-39
344.65891 794.62018 204.48062 8.8475323e-39
138.25 800.25 200 1.0692171e-38
144.36429 804.32855 204.30714 8.1110518e-39
344.97675 804.39532 204.46512 8.6631382e-39
145.66666 814.26666 203.66666 1.1336095e-38
152.31668 816.55005 207.56668 1.2626471e-38
343.7077 814.68463 204.50769 9.7691284e-39
147.30232 822.13953 201.11627 1.2904144e-38
154.32727 824.54541 204.63029 1.2995977e-38
162.56 827.19995 208.29999 1.1797794e-38
172 829 209 7.7411875e-39
337.89062 827.23438 203.45312 1.3087812e-38
341.09525 822.78571 205.2619 1.1059509e-38
156.31819 832.31818 201.62122 1.3641349e-38
164.50327 834.45099 204.26797 1.1981465e-38
173.28432 835.07849 207.2157 8.1096085e-39
326.67123 837.9726 203.54794 1.2810501e-38
333.13602 833.12006 204.856 1.2718307e-38
167.41667 841.47223 201.33333 1.0321941e-38
175.30302 844.35754 204.35757 9.5847358e-39
180 849 209 1.0874754e-38
306.68851 847.95074 205.36064 9.3070755e-39
314.64664 844.39099 204.33083 1.3271482e-38
322.31946 840.98615 205.40279 1.3271481e-38
177.65935 853.51648 202.95605 1.0321581e-38
183.10378 855.82074 207.04718 1.0594207e-38
299 855.85718 209.00002 1.0782196e-38
302.95514 854.12823 204.27565 1.2349884e-38
178.83334 860.66669 200.33334 9.3059881e-39
183.12056 864.19855 204.80141 1.2066455e-38
249 869 209 1.1604395e-38
254.34616 868.76929 208.50002 9.4914625e-39
297.07693 865.75385 204.43077 1.1335371e-38
300.125 860.625 203.875 1.1704152e-38
179 878.66669 200.33334 1.2067533e-38
182.0376 874.5188 204.74437 1.2159009e-38
247.54794 875.68494 206.64383 1.2157928e-38
253.65771 872.45636 203.57047 1.0410535e-38
264.3248 871.38464 204.64104 1.0322667e-38
274.48251 873.8042 204.62936 9.0319235e-39
284.62595 873.99237 204.771 1.2257326e-38
291.73914 870.92755 204.36232 1.2809777e-38
178.92064 885.42865 202.46033 1.2067893e-38
180.67163 883.53729 206.83582 1.206861e-38
247.13953 884.45734 204.59689 1.1699829e-38
250 880 200 1.2987687e-38
178.65767 894.5766 204.40541 1.1607638e-38
180 890.25 208.25 1.1700191e-38
248.19481 892.90912 204.09091 9.4910982e-39
250.14633 897.46338 205.53658 8.0177702e-39
175.9549 904.66168 204.53384 8.5705866e-39
251.40678 904.38983 204.61017 7.92449e-39
173.97675 914.65118 204.6124 9.0319249e-39
252.52713 914.47284 204.51163 8.4769379e-39
175.30708 924.84253 204.74016 8.938286e-39
254.86613 924.43304 204.61417 8.5687762e-39
168.83333 936.66669 208.5 6.450806e-39
172.30075 934.05267 204.18797 7.188734e-39
256.61069 934.61072 204.45038 7.8322929e-39
260.14288 938.42859 208.42857 5.8061597e-39
156.42223 947.35559 201.20001 9.7698487e-39
165.9257 945.62286 203.88 4.8849264e-39
170.35001 941.04999 201.75 4.7927308e-39
258.57895 940.36841 202.73685 9.491094e-39
264.81647 943.96204 204.44304 5.2537104e-39
273.92209 947.987 206.63637 6.2682224e-39
280.5 948.5 208 8.8486169e-39
154.4881 954.81549 204.41072 1.0783639e-38
164.39584 951.79169 206.77084 5.253709e-39
269 950 200 4.1491691e-39
275.2027 950.98651 202.0946 8.0192163e-39
283.84076 954.97455 204.89172 8.2961634e-39
152.81818 964.53717 204.6033 1.2166215e-38
285.01416 964.93616 204.5461 1.0323025e-38
155.27907 974.81396 204.3876 1.1797794e-38
276.79279 975.37842 204.71172 1.170343e-38
280.63336 970.33337 204.33334 1.1151704e-38
158.175 981.04999 205.425 1.4931363e-38
162.65041 985.29266 204.0813 1.4654414e-38
269 989 200 1.0321215e-38
272.47729 984.5 204.41667 1.0505606e-38
167.20183 993.3761 204.72476 1.4746971e-38
170.56757 998.10815 203.81082 1.4839529e-38
267.35452 995.50903 203.87273 1.0597802e-38
270.48572 991.51428 206.57143 9.5840127e-39
175.20155 1003.3023 204.51938 1.5761124e-38
181.6875 1007.9688 203.92188 1.668236e-38
255.01575 1006.6536 204.25197 1.6405047e-38
262.52875 1001.977 204.73563 1.3546979e-38
186.51949 1010.9481 204.94806 1.7143337e-38
194.31944 1015.1111 204.625 1.7418843e-38
202.48572 1018.5714 205.02858 1.7603953e-38
211 1019 209 1.9170558e-38
226.14474 1018.5658 204.23685 1.944678e-38
234.438 1016.6033 204.44627 1.9354587e-38
244.42426 1012.5379 204.36365 1.7787985e-38
250.35294 1010.0588 205.41176 1.7142614e-38
206.84746 1020.6271 203.98305 1.6220295e-38
214.62294 1021.5655 204.46721 1.4748421e-38
221.26088 1020.5217 204.3261 1.8156766e-38
137.95454 16.772728 210.31819 7.4653181e-39
144.77272 15.036364 211.61818 7.8333803e-39
153.80412 14.979381 211.21649 8.2021614e-39
329 16.5 219 9.76949e-39
333.69644 14.273809 214.66072 8.1106903e-39
344.35535 10.975206 214.11569 4.7934525e-39
354.74377 10.950413 214.0661 3.3190469e-39
364.4126 11.818182 213.95105 3.595631e-39
373.875 15.713235 214.69118 7.2812912e-39
137.68889 23.955557 210.57779 1.0690723e-38
144.36719 24.84375 212.09375 1.2257689e-38
153.46939 24.306122 211.12245 1.2349884e-38
331.50003 24.650795 214.27779 8.7560569e-39
376.54477 24.492537 214.34328 1.0506692e-38
380 20 219 1.1152064e-38
145.27274 30.18182 210 1.4931362e-38
151 30 210 1.4838445e-38
333.10077 34.821705 214.34108 8.6642256e-39
368.26669 37.333336 211.40001 1.0414498e-38
372.10654 33.877048 214.78688 1.013791e-38
329 48.200001 218.60001 7.1898186e-39
332.79019 44.503494 214.15384 7.3742085e-39
366.32352 44.985294 213.5956 1.0046437e-38
370.14285 42.095238 218 1.0783639e-38
328.1077 55.53846 216.95384 6.7292006e-39
331.43182 53.920456 212.36365 7.1898172e-39
365.1282 54.717949 214.1282 8.2958018e-39
370 58 219 8.2958018e-39
326.60144 64.68116 214.67392 7.4667656e-39
330.20001 61.200001 210.40001 7.8355481e-39
365.28574 64.496895 213.98137 9.0326466e-39
370.20001 65.733337 218.86668 9.0326466e-39
324.23404 74.460991 214.19148 7.8359083e-39
364.78983 74.560509 213.57326 9.2170378e-39
370.46155 74.92308 218.53847 8.8489756e-39
319 89 219 7.3742113e-39
322.16547 84.553955 214.259 7.9277438e-39
357.69232 87.576927 210.76924 8.9418971e-39
364.32053 84.474358 213.78847 8.0192177e-39
371.58063 85 218.25806 7.6507967e-39
318.46429 95.535721 217.05357 7.37457e-39
322.15317 94.270271 212.05406 7.5585997e-39
356.19766 93.5 211.25581 7.37457e-39
364.59286 94.671432 213.72858 7.5589612e-39
373.1391 94.730431 216.82608 8.7571429e-39
317.37662 104.42857 217.19481 7.7433539e-39
324.04138 105.26897 212.93103 8.3883632e-39
333.98486 107.54546 211.62122 8.2961662e-39
341.72729 108.72728 210.18182 7.6511569e-39
366.46774 104.92741 213.88708 1.1706684e-38
370.96429 100.53572 216.42857 1.3458041e-38
317.89999 110.4 218.40001 8.2039691e-39
325.97559 112.78049 217.90244 7.6507953e-39
334.34058 114.36957 215.24638 8.1117735e-39
344.35114 114.54198 212.16031 7.7433525e-39
350.4375 115.6875 210.0625 7.2823744e-39
363.06033 114.56034 214.38792 1.1522293e-38
328.15387 124.19231 219.00002 7.6507953e-39
334.59399 124.68421 217.0376 7.0054259e-39
343.76865 124.1791 212.82835 6.4526137e-39
350 121 210 6.1763855e-39
363.00754 124.58647 214.60152 1.0231914e-38
326.18103 136.08621 216.19827 5.8998e-39
333.60608 133.22728 213.45456 6.3607782e-39
342 132.09091 210.45456 7.6511583e-39
356.46939 137.10204 210.59183 9.6783789e-39
363.15329 134.32846 214.9416 9.8627688e-39
316.6506 146.26506 216.40964 6.6373665e-39
324.05161 143.99355 212.79355 8.4805574e-39
334.54968 145.10596 213.69536 9.9553274e-39
344.54715 144.5849 214.39622 9.7709347e-39
354.4375 144.60001 214.65001 8.3872772e-39
362.06412 143.88461 217.3718 7.5571522e-39
307.54904 156.84314 217.25491 7.743714e-39
314.01935 154.14194 213.46451 7.4667656e-39
324.5108 154.43886 213.34532 1.013972e-38
333.9426 154.50819 217.69672 9.4025137e-39
340.33334 158.66667 219 6.9128688e-39
356.00003 150 219.00002 9.0330081e-39
361 150 219 7.3727637e-39
305.74402 164.69601 216.12001 6.8210347e-39
314.25861 164.43103 211.5 8.7571457e-39
324.65414 164.58647 213.40602 9.126287e-39
334.48062 164.58914 216.58139 9.126287e-39
341.35715 165.4762 218.57143 9.2181225e-39
304.54013 174.70073 215.9781 6.1756625e-39
314.27521 174.49541 211.36696 7.1898158e-39
324.68518 174.31482 211.24074 7.09726e-39
334.51492 174.37312 213.64925 9.0340913e-39
342.45679 174.54321 217.44444 9.5872651e-39
299 189 219 7.7433525e-39
304.69229 184.37762 215.2937 7.0054259e-39
314.32407 184.43518 211.2963 6.9125072e-39
324.5 184.5 211 7.0972586e-39
334.76031 184.33884 212.53719 8.7567814e-39
343.47272 184.89999 216.97272 1.0232276e-38
299 193.5 219 7.7433525e-39
304.6312 194.6241 216.18439 7.8355481e-39
314.38016 194.54544 211.98346 7.8351866e-39
324.53775 194.74529 211.06604 8.5727516e-39
334.59665 194.4958 212.40337 9.9553274e-39
344.40152 194.73485 216.49243 1.0416666e-38
299 204.5 219 7.4664041e-39
304.31061 204.50758 216.22728 8.4805588e-39
314.33627 204.41592 212.55753 8.4805574e-39
324.4563 204.36893 211.97087 8.8493385e-39
334.74792 204.58824 212.88237 9.4943492e-39
344.33859 204.43307 217.06299 1.0139719e-38
299 214.5 219 7.8351866e-39
304.70865 214.48032 216.29921 8.019938e-39
314.31357 214.6017 212.77966 7.8348265e-39
324.5463 214.51852 212.4537 6.728116e-39
334.74615 214.62308 214 9.5865448e-39
342.88763 213.76405 217.62921 1.0692894e-38
304.71652 224.40945 217.15749 8.2961648e-39
314.45132 224.53098 213.85841 8.9415342e-39
324.5849 224.52831 213.40567 8.7567828e-39
334.55814 224.35658 215.40311 9.1255653e-39
341.44897 224.42857 218.20407 1.0324469e-38
305.58655 234.54808 217.62502 7.4660425e-39
314.46902 234.52213 214.72566 8.6645857e-39
324.6207 234.57759 214.81897 9.0330081e-39
334.3125 234.30469 217.25 9.955326e-39
340.66669 231.41667 218.91667 1.0416666e-38
305.65936 244.46155 218.011 7.6504338e-39
314.45215 244.21738 216.46956 9.0333697e-39
324.67767 244.45453 216.93387 9.5865434e-39
331.82355 243.23531 218.39217 9.9549672e-39
305.85364 254.51219 218.39023 8.7571443e-39
314.29999 254.70908 217.24545 9.7712962e-39
323.71741 254.51088 217.90218 1.0047522e-38
305.56339 264.01407 218.69014 9.4947093e-39
314.06155 262.61539 218.36923 9.8634919e-39
322.2381 260.85715 218.7619 1.0415581e-38
294.75 308.75 218.66667 8.3883618e-39
301.5 309 219 8.7571429e-39
268.5 318.83334 218.5 8.7582275e-39
275.32468 317.25974 216.87013 8.850063e-39
284.81955 314.7218 215.57895 8.7575058e-39
294.54794 314.13699 215.06165 8.8493399e-39
302.79517 315.5542 218.03613 8.5731132e-39
313.53336 318.80002 218.26668 9.0344529e-39
258.10001 327.40002 217.40001 7.5589598e-39
264.55698 324.7785 214.78482 7.9277452e-39
274.21054 323.6767 212.24812 8.2039705e-39
284.4299 323.92523 211.65421 9.0337312e-39
294.39795 323.33673 211.98979 9.0337312e-39
304.42984 322.21054 213.1579 8.4809189e-39
313.7515 323.94675 214.87575 1.1522656e-38
256.59677 334.68549 215.41934 7.4674873e-39
260.90909 332.72729 210.63637 7.743714e-39
313.93234 334.57895 214.45865 1.1706684e-38
255.28387 344.65161 214.68387 6.9143121e-39
260 342.5 210 6.5451695e-39
316.61719 344.58594 214.57812 1.1153509e-38
320 348.66669 218.66667 1.0323747e-38
247.61111 356.77777 216.85185 7.466767e-39
253.16058 353.98541 213.31387 7.283096e-39
317.50616 353.77777 212.28395 1.0784726e-38
321.25333 355.66669 216.57333 1.0877282e-38
238.6875 367.625 218.0625 7.7429924e-39
243.94339 364.14465 214.19496 8.0206611e-39
250.66667 360.33334 210.16667 8.3890849e-39
318.75 361 210.25 1.05085e-38
323.8176 364.74213 214.56602 1.0785087e-38
237.7347 375.28571 215.34694 8.0199408e-39
241.22 372.91998 211.48 8.2046922e-39
327.19827 373.78448 213.28448 1.1153509e-38
330.35294 376.44119 217.35294 1.1429734e-38
229 388.80002 216.10001 7.09726e-39
233.6732 384.12418 213.81046 6.2682224e-39
240 381 210 6.637728e-39
328.58139 383.60464 211.06976 1.0784365e-38
330.49384 384.76544 215.77779 1.133754e-38
226.75189 394.59399 214.53384 7.0976202e-39
230 390 210.5 7.0054259e-39
328.72339 395.34042 211.53191 1.2443889e-38
330.38571 393.85715 216.10001 1.1890714e-38
218.625 408.5 217.25 7.3745714e-39
222.15152 404.08334 214.34091 6.4522522e-39
328.64816 404.22223 211.72223 1.2536445e-38
330.88461 405.02563 216.51282 1.1706683e-38
144.88889 415.22223 210.87878 9.8616856e-39
151.21875 416.5625 210.5625 1.0692532e-38
216.5 414.93573 214.73572 7.7433539e-39
220.10001 413.64999 210.5 6.8213962e-39
329 411.90909 210.54546 1.198363e-38
331.63867 414.57144 214.89917 1.0876559e-38
145.89024 424.18292 210.59755 1.1429734e-38
152.13335 424.60004 210.55002 1.0323025e-38
166.93335 428.13336 210.00002 9.3085104e-39
170 428 210 8.755338e-39
187.71429 428.57144 210.00002 7.9273836e-39
190 429 210 7.0054273e-39
208.8 428.30002 217.90001 6.4529766e-39
212.77142 424.11429 213.95 7.0061504e-39
329 429 210 1.3273648e-38
331.45526 424.40649 214.48779 1.1798155e-38
147.78125 433.3125 210.15625 1.0322664e-38
154.54128 434.77979 210.44035 1.0507779e-38
164.45834 434.50836 210.78334 1.0784366e-38
175.92 436.88 210.67999 8.4798343e-39
184.96552 435.28448 211.58621 8.2961662e-39
194.64655 435.11206 211.37068 9.1262898e-39
206.23358 435.82483 214.43065 6.0841927e-39
211.23077 432.96155 211.78847 6.1763897e-39
329 432 210 1.1243898e-38
330.51401 434.54205 214.48598 1.1244982e-38
148.5 444.5 210 1.2813035e-38
154.30327 444.50818 210.78688 1.2536085e-38
164.856 444.80002 210.70401 9.9546043e-39
174.32668 444.41333 213.84666 8.4801945e-39
184.69231 444.38461 215.8923 8.1114134e-39
194.89571 444.61963 215.74846 7.3749329e-39
203.82652 444.18875 213.89795 5.6235761e-39
330.98322 444.59665 214.4538 1.0507417e-38
148.00002 452.00003 210.00002 1.438036e-38
155.41176 453.86765 210.02942 1.1890354e-38
164.56706 454.54266 213.93901 9.1248422e-39
174.42241 454.31033 217.47414 9.4021536e-39
183.05952 454.21429 217.78572 7.6500737e-39
333.21368 454.35901 214.64104 1.1614126e-38
155.8855 465.22137 212.44275 9.3092321e-39
163.41463 463.45526 216.91869 8.9400894e-39
174.13637 462.13638 218.12122 7.8348251e-39
181.11111 460.33334 218.55556 8.0195793e-39
333.26788 464.48218 214.71429 1.3181454e-38
149 477.5 210 1.161485e-38
153.20915 474.20917 214.50981 9.2173994e-39
160 470 219 1.0046077e-38
329 478.45456 211.9091 1.0875836e-38
331.34482 474.14655 214.68965 1.2350969e-38
147.43243 485.52252 213.73874 9.4936275e-39
150.36584 481.9512 216.39023 1.0415945e-38
327.53717 484.7355 214.34709 1.2720114e-38
330 480.39999 218.2 1.1152064e-38
138.7 498 210.60001 9.4939877e-39
144.34375 494.45001 214.60625 1.179888e-38
152.59702 495.61194 218.38806 1.281195e-38
323.76743 494.55814 214.45737 1.2536083e-38
137.7907 504.74417 210.74419 1.2720836e-38
144.40152 504.56821 213.84091 1.2812311e-38
152.54022 504.58621 217.28735 1.2167302e-38
321.7431 504.50458 214.31192 1.2351691e-38
138.09091 510.90912 210.09091 1.2720114e-38
144.67627 514.4173 212.2518 1.262828e-38
152.87962 514.46295 216.9537 1.1613765e-38
321.54169 514.53339 214.54167 1.2813032e-38
146.41284 524.41284 211.78899 1.0138996e-38
151.48236 523.78827 216.21176 9.1244807e-39
318.9231 527.19232 217.38463 1.2720835e-38
320.65979 523.82471 213.85567 1.2720475e-38
145.19109 534.46497 213.87262 1.0968758e-38
152.41379 536.68964 217.8793 1.2443888e-38
318.46954 534.48694 214.79999 1.0599975e-38
320.15387 536.76923 211.53847 8.6645871e-39
145.625 543.76923 211.69232 1.1983271e-38
154.59183 544.51019 215.69388 1.2075467e-38
160.375 546.25 218.875 1.2259858e-38
318.71429 540.14288 218.00002 7.2820128e-39
323.96774 544.49677 214.50322 8.7553352e-39
147.44261 554.83606 211.06557 8.2043307e-39
154.44653 554.79242 215.37106 8.7575044e-39
160.73334 553.46667 218.36668 1.115351e-38
328.39999 550.85004 215.35001 8.4791071e-39
331.08737 555.4563 213.9903 8.8475295e-39
145.96851 564.53546 213.56693 5.2551551e-39
150.95238 563.21429 218.11905 4.9785682e-39
332.69864 564.43152 214.32877 8.2947186e-39
145.63493 574.7937 213.42859 5.3473493e-39
150.51515 574.96973 218.36365 5.6242978e-39
332.46619 574.45868 214.54135 9.7691242e-39
145.31967 584.40979 213.28688 5.071124e-39
150.60976 584.48779 218.09755 5.2555152e-39
329 587.42859 218.71429 9.1244821e-39
331.71072 584.32227 214.08264 9.4003445e-39
146.12857 594.48572 213.61429 9.309595e-39
150.48485 596.03033 217.69698 8.8486169e-39
328.87097 595.32257 218.09677 9.9531553e-39
331.45285 594.29248 213.29245 9.308509e-39
149 600.40002 210.8 8.5720286e-39
153.07143 604.46106 214.75974 8.6642242e-39
328.10812 604.9054 216.5 9.8613227e-39
330.59998 603.85455 211.6909 9.5843742e-39
146.02751 617.45868 214.72476 5.9919957e-39
152.82835 613.26862 214.48508 7.3742085e-39
304.82269 615.24109 214.98581 1.0138633e-38
314.4035 615.11401 214.49123 8.0174101e-39
324.87219 613.75189 214.4812 8.939365e-39
330.14288 610.57147 210.57144 1.0045352e-38
128.54839 628.61285 214.03226 8.295806e-39
134.28302 624.03772 214.63521 6.1760254e-39
141.57143 620.57141 212.64287 5.5310175e-39
304.74051 624.69623 214.79114 9.3092335e-39
310.6842 628.63159 212.21053 8.5723901e-39
124.74657 634.27399 214.21233 9.9549658e-39
308.66669 630.33337 218.16667 8.203609e-39
314.18124 634.32501 214.47501 9.4936247e-39
77 649 210 9.4010662e-39
82 649 210 9.4010676e-39
117.81308 645.43921 214.29906 9.401069e-39
121.30769 641.95386 216.01538 9.4014277e-39
317.04651 644.23254 214.84496 1.1336454e-38
320.10001 647.20001 210.3 1.0783639e-38
65.827957 656.72046 212.53763 1.0505246e-38
74.341614 653.96893 214.69566 1.0414133e-38
84.771431 652.85712 214.47858 8.8478938e-39
94.400002 655.96924 214.48462 7.6497107e-39
101.65454 658.25452 214 6.0834682e-39
116.35625 655.3125 214.5125 7.9270207e-39
120 652.5 219 9.1248422e-39
317.78162 654.21838 216.12643 1.2167299e-38
320.45834 655.14587 211.35417 1.1613403e-38
58.279068 665.06976 211.37209 1.1149531e-38
63.064514 663.33868 216.09677 1.0781831e-38
70.5 660 219 1.0321215e-38
106.42709 661.42712 214.47917 5.6228516e-39
111.13637 660.34094 214.9091 5.9912754e-39
318.6774 662.70966 217.90321 1.013827e-38
321.37964 664.96295 213.57408 1.013827e-38
57.686565 674.67163 211.77611 1.170162e-38
61.323944 674.59155 216.77464 1.2070401e-38
322.65115 674.37207 214.54263 1.0322299e-38
57.072464 683.91309 211.02899 1.2070407e-38
63.1194 685.32086 215.67909 1.4280216e-38
70 689 219 1.5846103e-38
322.90768 684.46924 214.50769 1.1060229e-38
58.666668 690.33337 210 1.290523e-38
65.728973 693.06537 212.12149 1.3451908e-38
73.760002 695.83337 215.02667 1.446317e-38
81.260872 698.6087 217.34782 1.5291129e-38
324.15909 694.61365 214.47728 1.1059867e-38
76 700.59375 210.75 1.2529234e-38
84.903511 701.38599 213.78947 1.5014902e-38
94.741074 701.62506 214.41965 1.3264986e-38
104.58778 701.93127 214.16031 9.397818e-39
111.93069 705.92078 214.76237 9.4914583e-39
326.15671 704.4552 214.50746 1.0044992e-38
108.77778 714.72223 210.22223 1.0598888e-38
112.61788 714.51215 214.71544 9.5840127e-39
327.61417 714.40942 214.56693 9.2166777e-39
330.08334 718.91669 213.75 7.1894557e-39
109 720 210 1.0413056e-38
115.08125 724.26251 213.88126 9.0319263e-39
120.52631 728.36841 217.1579 9.3999858e-39
333.5946 724.22974 214.33784 9.0315634e-39
117.57143 730.85718 210.71429 5.3462661e-39
121.91803 734.62292 214.87704 9.0322865e-39
327.83334 739 218.66667 6.5440877e-39
336.18573 735.01428 215.37857 9.8609625e-39
341.05716 736.65717 211.45714 1.0414496e-38
124.42106 744.5564 214.76692 8.2950815e-39
326.19998 744.6889 215.77037 7.6500723e-39
332.92941 742.1059 212.02353 9.5850973e-39
341.1875 740.75 210.5625 1.0321219e-38
125.2349 754.96643 214.51678 6.4526137e-39
130.21429 756.57147 218.71429 8.2947214e-39
327.63159 751.44739 217.1579 6.5448079e-39
331.93024 755.40308 214.29457 7.3742071e-39
118.55714 766.29999 213.58571 9.4007088e-39
123.21053 762.71051 216.57895 8.8478952e-39
130.25 760.75 219 7.3731252e-39
336.55884 762.53925 213.70589 6.3607796e-39
342.13638 766.20459 215.79546 8.4801945e-39
118.3913 771.58698 215.23914 9.2173994e-39
122.68751 775.88397 214.53572 7.5589641e-39
344.32001 774.41602 214.58401 9.7694872e-39
126.22137 784.46564 214.9771 6.9132303e-39
135.04274 785.68378 217.01711 6.2678609e-39
141.40425 786.9787 216.87233 9.9538812e-39
346.36496 784.42334 214.49635 1.0046799e-38
127.90179 793.73218 214.72322 6.6373679e-39
133.95029 794.96686 214.70166 5.9001644e-39
144.5641 794.8526 214.65385 1.023047e-38
150 798.66669 218.66667 1.0783642e-38
348.01694 794.32202 214.27966 9.9538812e-39
128.94118 804.88239 216.62746 6.9143177e-39
132.69621 804.00635 215.63925 6.3611439e-39
147.55737 803.1311 211.54097 1.1428653e-38
153.65132 805.11188 215.25 1.3456958e-38
161.625 808.29169 218.04167 1.4471471e-38
347.90601 804.6496 214.42737 9.4007046e-39
350 802.5 219 1.0599972e-38
128.90001 811.93335 216.86668 5.1636839e-39
133.40398 813.89404 215.36424 5.993446e-39
148.66667 810.33337 210 1.3640988e-38
155.59813 813.66351 211.71027 1.1797072e-38
164.35762 814.32452 215.70198 1.1243897e-38
174 816.9425 216.91954 8.1099714e-39
180 819 219 7.8330202e-39
346.48462 814.56152 214.46924 1.0413776e-38
158.66667 820.33337 210 1.216513e-38
165.19812 822.9906 211.50943 1.0966949e-38
175.56593 824.48352 213.65935 7.6486331e-39
180 823 219 8.8471707e-39
338.80002 828.90002 212.2 1.1889266e-38
342.46155 824.26154 214.54616 1.1796712e-38
177.76344 833.79572 212.86021 9.7687697e-39
180.73586 835.81134 217.20755 1.0966949e-38
196.03125 838.15625 218.28125 6.6323176e-39
204.77779 837.9259 216.17284 9.7622873e-39
211.8485 838.12122 217.12122 1.1787353e-38
328.47827 838.91309 213.95653 1.2348441e-38
334.55844 834.13635 214.6039 1.244172e-38
340 830 219 1.2350247e-38
178.77779 842.74072 211.03703 1.0874394e-38
183.70808 845.0932 215.03107 9.8598821e-39
194.38356 844.36987 215.16438 8.9350461e-39
204.40163 844.3114 213.15573 1.050057e-38
213.95419 844.49622 215.50381 1.1881705e-38
295.85938 848.1875 216.4375 8.3861954e-39
304.54309 847.56036 214.49138 1.1335737e-38
314.5 845.36719 214.5625 1.3271843e-38
323.89746 842.04279 214.50429 1.2810502e-38
185.92982 852.01758 210.64912 1.0041395e-38
194.48529 854.66913 213.28676 1.1421807e-38
204.64539 854.69501 216.14183 9.5804114e-39
214.28789 854.41669 216.5985 1.0317258e-38
221.47223 856.16669 218.72223 9.2109114e-39
288.66669 856.46674 218.66667 1.2257689e-38
294.41278 854.22675 214.13954 1.0875116e-38
300 850.5 210 9.7698501e-39
187.91489 865.10638 210.91489 1.1976419e-38
194.36241 864.38257 215.34229 1.1424685e-38
200.94118 861.47058 218.76471 1.0135386e-38
215.18182 861.45459 218.47728 7.8312167e-39
224 862.44824 218.36206 7.2784059e-39
239 869 218 7.8297846e-39
245.73451 866.86725 215.15929 1.1331054e-38
254.58278 865.46356 214.34438 7.925576e-39
264.16327 867.55103 215.70407 1.1889628e-38
274.81033 867.06897 215.36206 1.3456233e-38
284.71335 865.04004 215.22 1.2073297e-38
294.23077 864.37061 213.25174 1.2257324e-38
186.69511 875.13409 212.07317 1.1609796e-38
192.79439 874.01868 216.48598 1.1150618e-38
238.57895 871.26318 217.63158 7.5531921e-39
243.02055 874.5274 214.09589 9.856278e-39
259 870 210 9.76949e-39
265.21875 870.15625 210.75 1.1520847e-38
274.41177 870.35297 210.52942 1.1427929e-38
284.59525 870.7619 210.66667 1.0045355e-38
291 870.10004 210.7 1.3455507e-38
184.52565 884.3269 214.3782 1.1241731e-38
190.28572 880.28577 218.28572 9.7684068e-39
245.81955 884.3985 214.44362 6.9107024e-39
250.8 887.60004 218.05 5.7136011e-39
178.7377 896.62292 213.62294 1.0320499e-38
180.875 892.25 215.5 1.0412692e-38
248.11111 891.22223 211.85185 6.6359189e-39
